ply
format ascii 1.0
element vertex 1574
property float x
property float y
property float z
end_header
-32.052246 32.080383 4.692971
-32.154419 31.958679 4.691419
-32.256470 31.837097 4.689929
-32.358398 31.715515 4.688502
-32.460327 31.594055 4.687139
-32.562256 31.472595 4.685842
-32.664063 31.351257 4.684606
-32.765869 31.229919 4.683433
-32.867676 31.108704 4.682323
-32.969360 30.987488 4.681277
-33.070923 30.866333 4.680297
-33.172607 30.745239 4.679376
-33.274170 30.624146 4.678517
-33.375732 30.503113 4.677728
-33.477295 30.382141 4.676997
-33.578735 30.261169 4.676330
-33.680298 30.140198 4.675727
-33.781738 30.019287 4.675185
-33.883179 29.898438 4.674703
-33.984497 29.777588 4.674289
-34.085938 29.656738 4.673936
-34.187378 29.535889 4.673648
-34.288696 29.415100 4.673417
-34.390137 29.294250 4.673253
-34.491455 29.173462 4.673152
-34.592773 29.052673 4.673112
-34.694214 28.931885 4.673137
-34.795532 28.811096 4.673223
-34.896851 28.690308 4.673371
-34.998291 28.569458 4.673583
-35.099609 28.448608 4.673856
-35.201050 28.327820 4.674193
-35.302490 28.206970 4.674594
-35.403931 28.086060 4.675057
-35.505371 27.965149 4.675582
-35.606812 27.844238 4.676169
-34.867065 27.070190 4.555495
-34.936646 26.929321 4.551944
-35.005737 26.788269 4.548398
-35.074341 26.647156 4.544862
-35.142334 26.505859 4.541327
-35.209839 26.364441 4.537801
-35.276978 26.222961 4.534278
-35.343384 26.081299 4.530763
-35.409424 25.939575 4.527253
-35.470459 25.794556 4.523131
-35.516113 25.638672 4.516917
-35.561279 25.482910 4.510720
-35.605835 25.327148 4.504539
-35.649658 25.171509 4.498376
-35.693237 25.015991 4.492232
-35.736084 24.860474 4.486102
-35.778564 24.705078 4.479991
-35.820435 24.549866 4.473899
-35.861816 24.394653 4.467820
-35.902710 24.239563 4.461761
-35.943115 24.084595 4.455716
-35.982788 23.929626 4.449689
-36.022217 23.774841 4.443679
-36.060913 23.620178 4.437690
-36.099121 23.465576 4.431716
-36.136963 23.311035 4.425754
-36.174194 23.156616 4.419816
-36.210938 23.002380 4.413890
-36.247070 22.848145 4.407983
-36.282837 22.694153 4.402095
-36.317993 22.540100 4.396222
-36.352661 22.386230 4.390365
-36.386963 22.232483 4.384526
-36.466431 22.106750 4.384820
-36.563354 21.991272 4.387471
-36.660400 21.875732 4.390180
-36.757446 21.760071 4.392955
-36.854614 21.644226 4.395791
-36.951904 21.528259 4.398692
-37.049316 21.412109 4.401652
-37.146973 21.295837 4.404677
-37.244629 21.179443 4.407767
-37.342407 21.062927 4.410920
-37.440308 20.946228 4.414134
-37.538330 20.829346 4.417415
-37.636597 20.712341 4.420758
-37.734985 20.595215 4.424167
-37.833374 20.477844 4.427640
-37.931152 20.359924 4.431085
-38.029907 20.242249 4.434682
-38.128784 20.124451 4.438350
-38.227783 20.006348 4.442082
-38.326904 19.888184 4.445878
-38.426392 19.769714 4.449744
-38.525757 19.651184 4.453671
-38.625366 19.532410 4.457667
-38.725342 19.413452 4.461734
-38.825195 19.294250 4.465859
-38.925415 19.174866 4.470056
-39.025879 19.055298 4.474320
-39.126221 18.935547 4.478656
-39.226929 18.815552 4.483052
-39.327881 18.695374 4.487521
-39.428833 18.574951 4.492059
-39.530029 18.454346 4.496665
-39.631470 18.333435 4.501342
-39.733154 18.212341 4.506085
-39.834961 18.091003 4.510900
-39.937012 17.969482 4.515786
-40.039185 17.847595 4.520740
-40.141602 17.725586 4.525767
-40.244263 17.603271 4.530862
-40.347046 17.480713 4.536033
-40.450073 17.357910 4.541272
-40.553223 17.234863 4.546586
-40.656738 17.111511 4.551970
-40.760498 16.987915 4.557429
-40.864380 16.864075 4.562961
-40.968506 16.739929 4.568566
-41.072998 16.615479 4.574246
-41.177612 16.490845 4.579999
-41.282471 16.365845 4.585830
-41.387573 16.240540 4.591733
-41.492920 16.114990 4.597713
-41.598633 15.989136 4.603766
-41.704346 15.862915 4.609899
-41.809937 15.736206 4.616023
-41.916382 15.609436 4.622310
-42.022949 15.482300 4.628678
-42.129883 15.354919 4.635121
-42.237061 15.227173 4.641644
-42.344604 15.099121 4.648244
-42.452271 14.970703 4.654927
-42.390991 14.782959 4.641261
-42.317749 14.591980 4.626243
-42.282349 14.414856 4.615878
-42.389893 14.286499 4.622800
-42.497803 14.157898 4.629804
-42.606079 14.028870 4.636886
-42.714600 13.899536 4.644050
-42.822876 13.769653 4.651225
-42.931885 13.639587 4.658559
-43.041504 13.509155 4.665978
-43.151245 13.378296 4.673482
-43.261353 13.247131 4.681069
-43.371826 13.115540 4.688745
-43.482544 12.983521 4.696502
-43.593628 12.851135 4.704347
-56.512573 16.445251 6.232036
-56.657104 16.273010 6.242410
-56.802124 16.100281 6.252892
-56.947510 15.926941 6.263486
-57.093506 15.753052 6.274205
-57.239868 15.578613 6.285035
-57.386719 15.403625 6.295983
-57.533936 15.228088 6.307052
-57.681763 15.052002 6.318234
-57.830078 14.875244 6.329543
-57.978882 14.697937 6.340970
-58.128174 14.520020 6.352517
-58.277954 14.341492 6.364192
-58.428345 14.162415 6.375987
-58.577637 13.982361 6.387736
-67.786377 15.930542 7.459847
-67.961670 15.721619 7.473897
-64.597656 14.705994 7.074443
-64.212402 14.382751 7.023499
-63.832153 14.063721 6.973329
-63.457031 13.749023 6.923921
-63.086792 13.438416 6.875243
-62.721436 13.131897 6.827298
-62.360840 12.829346 6.780061
-62.004761 12.530640 6.733520
-61.653320 12.235779 6.687655
-61.306274 11.944641 6.642463
-60.963623 11.657104 6.597917
-60.748535 11.396362 6.568313
-70.301270 12.934570 7.670409
-70.485962 12.714355 7.686627
1811.701904 614.181152 -12.453380
1811.701904 614.181152 -12.453380
1811.701904 614.181152 -12.453380
1811.701904 614.181152 -12.453380
1811.701904 614.181152 -12.453380
-65.130371 10.344910 7.039849
-65.188232 10.120911 7.042401
-65.272949 9.900940 7.048142
-65.371704 9.682617 7.055579
-65.479492 9.465088 7.064147
-65.593994 9.247986 7.073560
-65.713623 9.031006 7.083648
-65.837402 8.813965 7.094302
-65.964722 8.596741 7.105451
-60.815918 7.709961 6.510720
-60.547607 7.461243 6.476859
-60.380737 7.226807 6.454774
-60.271362 7.000427 6.439378
-60.203125 6.779602 6.428792
-60.168091 6.563049 6.422112
-60.162598 6.350037 6.418885
-60.184692 6.140015 6.418925
-60.234619 5.932739 6.422227
-60.314087 5.728027 6.428992
-60.427124 5.526001 6.439681
-60.581787 5.327026 6.455209
-60.794800 5.131958 6.477489
-61.112305 4.943970 6.511767
1811.701904 614.181152 -12.453380
1811.701904 614.181152 -12.453380
1811.701904 614.181152 -12.453380
1811.701904 614.181152 -12.453380
1811.701904 614.181152 -12.453380
1811.701904 614.181152 -12.453380
1811.701904 614.181152 -12.453380
1811.701904 614.181152 -12.453380
-94.028931 4.640137 10.252435
-94.001953 4.309937 10.247569
1811.701904 614.181152 -12.453380
1811.701904 614.181152 -12.453380
-92.740601 3.279236 10.099214
-92.583740 2.950195 10.080094
-92.613647 2.627625 10.082400
-92.859863 2.310181 10.109481
1811.701904 614.181152 -12.453380
1811.701904 614.181152 -12.453380
1811.701904 614.181152 -12.453380
1811.701904 614.181152 -12.453380
1811.701904 614.181152 -12.453380
1811.701904 614.181152 -12.453380
1811.701904 614.181152 -12.453380
1811.701904 614.181152 -12.453380
1811.701904 614.181152 -12.453380
1811.701904 614.181152 -12.453380
1811.701904 614.181152 -12.453380
1811.701904 614.181152 -12.453380
1811.701904 614.181152 -12.453380
1811.701904 614.181152 -12.453380
1811.701904 614.181152 -12.453380
-25.800537 -0.799438 2.467165
-25.697266 -0.886108 2.455735
-25.594849 -0.972046 2.444427
-25.493286 -1.057251 2.433242
-25.392334 -1.141846 2.422176
-25.292236 -1.225891 2.411233
-25.192871 -1.309204 2.400404
-25.094360 -1.391968 2.389690
-24.996460 -1.473999 2.379093
-24.899292 -1.555603 2.368607
-24.802856 -1.636536 2.358233
-24.707153 -1.716797 2.347968
-24.612061 -1.796509 2.337811
-24.517700 -1.875671 2.327761
-24.423950 -1.954346 2.317817
-24.330933 -2.032349 2.307978
-24.238647 -2.109924 2.298240
-24.146851 -2.186890 2.288605
-24.055786 -2.263306 2.279068
-23.965210 -2.339233 2.269632
-23.875366 -2.414612 2.260292
-23.786133 -2.489441 2.251050
-23.697510 -2.563843 2.241901
-23.609375 -2.637695 2.232851
-23.521973 -2.711121 2.223889
-23.435059 -2.784058 2.215021
-23.348755 -2.856445 2.206243
-23.262939 -2.928406 2.197555
-23.177734 -2.999939 2.188954
-23.093018 -3.070984 2.180444
-23.008911 -3.141602 2.172016
-22.925293 -3.211670 2.163675
-22.842285 -3.281372 2.155419
-22.759644 -3.350708 2.147247
-22.677612 -3.419556 2.139155
-22.596069 -3.487854 2.131148
-22.515015 -3.555908 2.123219
-22.434448 -3.623474 2.115370
-22.354370 -3.690735 2.107599
-22.274780 -3.757446 2.099907
-22.195679 -3.823853 2.092290
-22.117065 -3.889832 2.084751
-22.038818 -3.955383 2.077287
-21.961060 -4.020630 2.069898
-21.883789 -4.085510 2.062581
-21.806885 -4.149963 2.055336
-21.730469 -4.214050 2.048163
-21.654541 -4.277832 2.041063
-21.578979 -4.341248 2.034033
-21.503784 -4.404236 2.027071
-21.429077 -4.466919 2.020179
-21.354858 -4.529358 2.013354
-21.280884 -4.591309 2.006598
-21.207397 -4.653015 1.999908
-21.134277 -4.714294 1.993285
-21.061523 -4.775391 1.986725
-20.989258 -4.836060 1.980232
-20.917236 -4.896423 1.973801
-20.845703 -4.956421 1.967435
-20.774414 -5.016174 1.961130
-20.703613 -5.075684 1.954887
-20.633057 -5.134766 1.948707
-20.562988 -5.193665 1.942587
-20.493164 -5.252136 1.936527
-20.423828 -5.310425 1.930526
-20.354736 -5.368408 1.924584
-20.285889 -5.426086 1.918702
-20.217529 -5.483521 1.912876
-20.149414 -5.540527 1.907107
-20.081665 -5.597412 1.901396
-20.014282 -5.653992 1.895741
-19.947144 -5.710327 1.890141
-19.880371 -5.766296 1.884596
-19.813843 -5.822083 1.879107
-19.747681 -5.877625 1.873670
-19.767456 -5.958618 1.878467
-19.852417 -6.059937 1.891081
-19.938354 -6.162292 1.903863
-20.025146 -6.265808 1.916811
-20.112915 -6.370483 1.929933
-20.201660 -6.476257 1.943226
-20.291382 -6.583191 1.956698
-20.382202 -6.691406 1.970351
-20.473999 -6.800781 1.984190
-20.566772 -6.911377 1.998214
-16.673096 -5.667847 1.532559
-16.455078 -5.657837 1.508691
-16.353638 -5.686951 1.498849
-16.278564 -5.724487 1.492192
-16.218628 -5.767212 1.487380
-16.169678 -5.813416 1.483891
-16.129272 -5.862488 1.481464
-16.096191 -5.914246 1.479958
-16.070068 -5.968384 1.479299
-16.050537 -6.024902 1.479459
-16.037476 -6.083923 1.480447
-16.031494 -6.145813 1.482312
-16.033203 -6.210754 1.485163
-16.044312 -6.279541 1.489185
-16.067749 -6.353455 1.494750
-16.109863 -6.435242 1.502661
-16.193237 -6.534241 1.515680
-22.442383 -9.147095 2.287376
-22.559692 -9.286804 2.305773
-22.678467 -9.428467 2.324450
-22.798950 -9.572021 2.343417
-22.921021 -9.717468 2.362677
-17.047852 -7.297852 1.639010
-16.923706 -7.314697 1.626773
-16.834839 -7.346252 1.618930
-16.764526 -7.385254 1.613358
-16.706299 -7.429382 1.609342
-16.657837 -7.477600 1.606541
-16.617554 -7.529297 1.604777
-16.584717 -7.584290 1.603955
-16.558716 -7.642395 1.604035
-16.539795 -7.703796 1.605018
-16.528076 -7.768677 1.606954
-16.524658 -7.837646 1.609950
-16.531006 -7.911438 1.614206
-16.549927 -7.991577 1.620099
-16.587769 -8.081421 1.628464
-16.666504 -8.191833 1.642041
-25.288574 -12.539490 2.742193
-25.447876 -12.729370 2.768079
-25.609741 -12.922241 2.794425
-25.774292 -13.118347 2.821246
-25.941528 -13.317688 2.848548
-26.111450 -13.520386 2.876348
-26.284424 -13.726440 2.904661
-26.460205 -13.936035 2.933495
-26.639160 -14.149292 2.962870
-26.821167 -14.366211 2.992798
-27.006348 -14.586914 3.023294
-27.194824 -14.811584 3.054375
-27.386719 -15.040283 3.086054
-27.582031 -15.273132 3.118356
-27.781006 -15.510254 3.151296
-27.983521 -15.751709 3.184884
-28.189941 -15.997742 3.219148
-28.400269 -16.248413 3.254110
-18.948853 -10.929077 2.018472
-18.886719 -10.981262 2.015326
-18.824707 -11.033325 2.012218
-18.762939 -11.085266 2.009151
-18.701294 -11.137085 2.006119
-18.639771 -11.188782 2.003124
-18.578369 -11.240356 2.000168
-18.517090 -11.291748 1.997249
-18.456055 -11.343079 1.994367
-18.495117 -11.456238 2.004917
-18.653320 -11.644531 2.031552
-18.814941 -11.836914 2.058796
-18.980103 -12.033447 2.086666
-19.148926 -12.234436 2.115191
-19.321655 -12.439941 2.144392
-19.498291 -12.650146 2.174290
-19.678955 -12.865173 2.204911
-19.863892 -13.085327 2.236287
-20.053101 -13.310608 2.268434
-20.246948 -13.541321 2.301392
-20.445557 -13.777649 2.335184
-20.649048 -14.019836 2.369844
-20.857544 -14.268066 2.405406
-21.071411 -14.522522 2.441902
-21.290771 -14.783569 2.479375
-21.515747 -15.051453 2.517860
-21.746704 -15.326355 2.557395
-21.983887 -15.608643 2.598033
-23.456055 -16.777344 2.811906
-23.719360 -17.091064 2.857115
-23.989868 -17.413574 2.903624
-24.268188 -17.745239 2.951500
-24.554443 -18.086426 3.000791
-24.848999 -18.437561 3.051569
-25.152344 -18.799133 3.103896
-25.464844 -19.171631 3.157846
-25.786987 -19.555542 3.213498
-26.119141 -19.951355 3.270919
-26.160767 -20.128235 3.286949
-26.070435 -20.203979 3.284084
-25.980347 -20.279724 3.281268
-25.890259 -20.355225 3.278502
-25.800415 -20.430664 3.275785
-25.710571 -20.506042 3.273118
-25.620972 -20.581238 3.270499
-25.531372 -20.656372 3.267932
-25.442017 -20.731384 3.265412
-25.352783 -20.806335 3.262941
-25.263550 -20.881165 3.260521
-25.174561 -20.955933 3.258148
-25.085571 -21.030518 3.255823
-24.996704 -21.105103 3.253547
-24.908081 -21.179565 3.251316
-24.819458 -21.253906 3.249138
-24.730835 -21.328186 3.247006
-24.642456 -21.402405 3.244921
-24.554199 -21.476501 3.242886
-24.465942 -21.550537 3.240893
-24.377808 -21.624512 3.238951
-24.289795 -21.698425 3.237057
-24.201782 -21.772217 3.235209
-24.114014 -21.845947 3.233406
-24.026245 -21.919617 3.231652
-23.938477 -21.993164 3.229946
-23.850830 -22.066711 3.228285
-23.763306 -22.140198 3.226670
-23.675903 -22.213562 3.225102
-23.588501 -22.286926 3.223582
-23.501221 -22.360168 3.222106
-23.413940 -22.433411 3.220678
-23.326782 -22.506592 3.219296
-23.239624 -22.579712 3.217957
-23.152588 -22.652771 3.216666
-23.065552 -22.725830 3.215422
-14.650879 -14.536194 1.877625
-14.595337 -14.582581 1.876873
-14.539917 -14.628967 1.876148
-14.484497 -14.675293 1.875452
-14.429077 -14.721558 1.874785
-14.373657 -14.767822 1.874147
-14.318359 -14.814087 1.873539
-14.263062 -14.860291 1.872961
-14.207764 -14.906494 1.872410
-14.874756 -15.715759 1.991594
-15.718994 -16.724304 2.141182
-16.649048 -17.838196 2.306255
-17.735474 -19.135803 2.498821
-21.852661 -23.743652 3.202766
-21.766357 -23.816101 3.202201
-22.123657 -24.377441 3.276898
-24.217896 -26.872925 3.647822
1811.701904 614.181152 -12.453380
1811.701904 614.181152 -12.453380
1811.701904 614.181152 -12.453380
1811.701904 614.181152 -12.453380
1811.701904 614.181152 -12.453380
1811.701904 614.181152 -12.453380
1811.701904 614.181152 -12.453380
1811.701904 614.181152 -12.453380
1811.701904 614.181152 -12.453380
1811.701904 614.181152 -12.453380
1811.701904 614.181152 -12.453380
1811.701904 614.181152 -12.453380
1811.701904 614.181152 -12.453380
1811.701904 614.181152 -12.453380
1811.701904 614.181152 -12.453380
1811.701904 614.181152 -12.453380
1811.701904 614.181152 -12.453380
1811.701904 614.181152 -12.453380
1811.701904 614.181152 -12.453380
1811.701904 614.181152 -12.453380
1811.701904 614.181152 -12.453380
1811.701904 614.181152 -12.453380
1811.701904 614.181152 -12.453380
1811.701904 614.181152 -12.453380
1811.701904 614.181152 -12.453380
1811.701904 614.181152 -12.453380
1811.701904 614.181152 -12.453380
1811.701904 614.181152 -12.453380
1811.701904 614.181152 -12.453380
1811.701904 614.181152 -12.453380
1811.701904 614.181152 -12.453380
1811.701904 614.181152 -12.453380
1811.701904 614.181152 -12.453380
1811.701904 614.181152 -12.453380
1811.701904 614.181152 -12.453380
1811.701904 614.181152 -12.453380
1811.701904 614.181152 -12.453380
1811.701904 614.181152 -12.453380
1811.701904 614.181152 -12.453380
1811.701904 614.181152 -12.453380
1811.701904 614.181152 -12.453380
1811.701904 614.181152 -12.453380
1811.701904 614.181152 -12.453380
1811.701904 614.181152 -12.453380
1811.701904 614.181152 -12.453380
1811.701904 614.181152 -12.453380
1811.701904 614.181152 -12.453380
1811.701904 614.181152 -12.453380
1811.701904 614.181152 -12.453380
1811.701904 614.181152 -12.453380
1811.701904 614.181152 -12.453380
-15.684692 -25.470093 2.934213
1811.701904 614.181152 -12.453380
1811.701904 614.181152 -12.453380
1811.701904 614.181152 -12.453380
1811.701904 614.181152 -12.453380
1811.701904 614.181152 -12.453380
1811.701904 614.181152 -12.453380
1811.701904 614.181152 -12.453380
1811.701904 614.181152 -12.453380
1811.701904 614.181152 -12.453380
1811.701904 614.181152 -12.453380
1811.701904 614.181152 -12.453380
1811.701904 614.181152 -12.453380
1811.701904 614.181152 -12.453380
1811.701904 614.181152 -12.453380
1811.701904 614.181152 -12.453380
1811.701904 614.181152 -12.453380
1811.701904 614.181152 -12.453380
1811.701904 614.181152 -12.453380
1811.701904 614.181152 -12.453380
1811.701904 614.181152 -12.453380
1811.701904 614.181152 -12.453380
1811.701904 614.181152 -12.453380
1811.701904 614.181152 -12.453380
1811.701904 614.181152 -12.453380
1811.701904 614.181152 -12.453380
1811.701904 614.181152 -12.453380
1811.701904 614.181152 -12.453380
1811.701904 614.181152 -12.453380
1811.701904 614.181152 -12.453380
1811.701904 614.181152 -12.453380
1811.701904 614.181152 -12.453380
-18.289795 -38.823425 4.415805
-17.916138 -38.377258 4.351707
-17.552124 -37.942566 4.289315
-17.197510 -37.519043 4.228580
-16.851685 -37.106079 4.169419
-16.514526 -36.703369 4.111789
-16.182251 -36.303101 4.054692
-15.862183 -35.921753 4.000186
1811.701904 614.181152 -12.453380
1811.701904 614.181152 -12.453380
1811.701904 614.181152 -12.453380
1811.701904 614.181152 -12.453380
1811.701904 614.181152 -12.453380
1811.701904 614.181152 -12.453380
1811.701904 614.181152 -12.453380
1811.701904 614.181152 -12.453380
1811.701904 614.181152 -12.453380
1811.701904 614.181152 -12.453380
1811.701904 614.181152 -12.453380
1811.701904 614.181152 -12.453380
1811.701904 614.181152 -12.453380
1811.701904 614.181152 -12.453380
1811.701904 614.181152 -12.453380
1811.701904 614.181152 -12.453380
1811.701904 614.181152 -12.453380
1811.701904 614.181152 -12.453380
1811.701904 614.181152 -12.453380
1811.701904 614.181152 -12.453380
1811.701904 614.181152 -12.453380
1811.701904 614.181152 -12.453380
1811.701904 614.181152 -12.453380
1811.701904 614.181152 -12.453380
1811.701904 614.181152 -12.453380
1811.701904 614.181152 -12.453380
1811.701904 614.181152 -12.453380
1811.701904 614.181152 -12.453380
1811.701904 614.181152 -12.453380
1811.701904 614.181152 -12.453380
1811.701904 614.181152 -12.453380
1811.701904 614.181152 -12.453380
1811.701904 614.181152 -12.453380
1811.701904 614.181152 -12.453380
1811.701904 614.181152 -12.453380
1811.701904 614.181152 -12.453380
1811.701904 614.181152 -12.453380
1811.701904 614.181152 -12.453380
1811.701904 614.181152 -12.453380
1811.701904 614.181152 -12.453380
1811.701904 614.181152 -12.453380
1811.701904 614.181152 -12.453380
1811.701904 614.181152 -12.453380
1811.701904 614.181152 -12.453380
1811.701904 614.181152 -12.453380
1811.701904 614.181152 -12.453380
1811.701904 614.181152 -12.453380
1811.701904 614.181152 -12.453380
1811.701904 614.181152 -12.453380
1811.701904 614.181152 -12.453380
1811.701904 614.181152 -12.453380
1811.701904 614.181152 -12.453380
1811.701904 614.181152 -12.453380
1811.701904 614.181152 -12.453380
1811.701904 614.181152 -12.453380
1811.701904 614.181152 -12.453380
1811.701904 614.181152 -12.453380
1811.701904 614.181152 -12.453380
1811.701904 614.181152 -12.453380
1811.701904 614.181152 -12.453380
1811.701904 614.181152 -12.453380
1811.701904 614.181152 -12.453380
1811.701904 614.181152 -12.453380
1811.701904 614.181152 -12.453380
1811.701904 614.181152 -12.453380
1811.701904 614.181152 -12.453380
1811.701904 614.181152 -12.453380
1811.701904 614.181152 -12.453380
1811.701904 614.181152 -12.453380
1811.701904 614.181152 -12.453380
1811.701904 614.181152 -12.453380
1811.701904 614.181152 -12.453380
1811.701904 614.181152 -12.453380
1811.701904 614.181152 -12.453380
1811.701904 614.181152 -12.453380
1811.701904 614.181152 -12.453380
1811.701904 614.181152 -12.453380
1811.701904 614.181152 -12.453380
1811.701904 614.181152 -12.453380
1811.701904 614.181152 -12.453380
1811.701904 614.181152 -12.453380
1811.701904 614.181152 -12.453380
1811.701904 614.181152 -12.453380
1811.701904 614.181152 -12.453380
1811.701904 614.181152 -12.453380
1811.701904 614.181152 -12.453380
1811.701904 614.181152 -12.453380
1811.701904 614.181152 -12.453380
1811.701904 614.181152 -12.453380
1811.701904 614.181152 -12.453380
1811.701904 614.181152 -12.453380
1811.701904 614.181152 -12.453380
1811.701904 614.181152 -12.453380
1811.701904 614.181152 -12.453380
1811.701904 614.181152 -12.453380
1811.701904 614.181152 -12.453380
1811.701904 614.181152 -12.453380
1811.701904 614.181152 -12.453380
1811.701904 614.181152 -12.453380
1811.701904 614.181152 -12.453380
1811.701904 614.181152 -12.453380
1811.701904 614.181152 -12.453380
1811.701904 614.181152 -12.453380
1811.701904 614.181152 -12.453380
1811.701904 614.181152 -12.453380
1811.701904 614.181152 -12.453380
1811.701904 614.181152 -12.453380
1811.701904 614.181152 -12.453380
1811.701904 614.181152 -12.453380
1811.701904 614.181152 -12.453380
1811.701904 614.181152 -12.453380
1811.701904 614.181152 -12.453380
1811.701904 614.181152 -12.453380
1811.701904 614.181152 -12.453380
1811.701904 614.181152 -12.453380
1811.701904 614.181152 -12.453380
1811.701904 614.181152 -12.453380
1811.701904 614.181152 -12.453380
1811.701904 614.181152 -12.453380
1811.701904 614.181152 -12.453380
1811.701904 614.181152 -12.453380
1811.701904 614.181152 -12.453380
1811.701904 614.181152 -12.453380
1811.701904 614.181152 -12.453380
1811.701904 614.181152 -12.453380
1811.701904 614.181152 -12.453380
1811.701904 614.181152 -12.453380
1811.701904 614.181152 -12.453380
1811.701904 614.181152 -12.453380
1811.701904 614.181152 -12.453380
1811.701904 614.181152 -12.453380
1811.701904 614.181152 -12.453380
1811.701904 614.181152 -12.453380
1811.701904 614.181152 -12.453380
1811.701904 614.181152 -12.453380
1811.701904 614.181152 -12.453380
1811.701904 614.181152 -12.453380
1811.701904 614.181152 -12.453380
1811.701904 614.181152 -12.453380
1811.701904 614.181152 -12.453380
1811.701904 614.181152 -12.453380
1811.701904 614.181152 -12.453380
1811.701904 614.181152 -12.453380
1811.701904 614.181152 -12.453380
1811.701904 614.181152 -12.453380
1811.701904 614.181152 -12.453380
1811.701904 614.181152 -12.453380
1811.701904 614.181152 -12.453380
1811.701904 614.181152 -12.453380
1811.701904 614.181152 -12.453380
1811.701904 614.181152 -12.453380
1811.701904 614.181152 -12.453380
1811.701904 614.181152 -12.453380
1811.701904 614.181152 -12.453380
195.128418 -30.993042 23.785252
194.875244 -30.255798 23.740486
21.831543 -3.311523 2.237392
21.782349 -3.226318 2.229876
21.811890 -3.152954 2.232148
1811.701904 614.181152 -12.453380
1811.701904 614.181152 -12.453380
156.325195 -20.928040 18.891708
155.227905 -20.229797 18.746925
154.634888 -19.603821 18.664894
154.565796 -19.047119 18.647999
154.469971 -18.488159 18.628048
146.674927 -17.036072 17.656639
146.217285 -16.465881 17.592850
145.835449 -15.907532 17.538704
145.474243 -15.354431 17.487366
144.902588 -14.782898 17.410309
144.418457 -14.224304 17.344307
144.017334 -13.677429 17.288834
143.809204 -13.151245 17.257385
143.237549 -12.594971 17.181381
142.974976 -12.069092 17.143707
108.601318 -8.785828 12.904281
107.984741 -8.356628 12.824653
107.611328 -7.949951 12.775168
107.300781 -7.550476 12.733619
106.992432 -7.153564 12.692498
106.686035 -6.759094 12.651809
106.381714 -6.367065 12.611552
106.016724 -5.973938 12.564019
105.554199 -5.578308 12.504668
105.031128 -5.183044 12.438045
104.552734 -4.793701 12.377095
104.079102 -4.407959 12.316924
103.610352 -4.025818 12.257512
103.146362 -3.647278 12.198846
102.686890 -3.272156 12.140918
101.821289 -2.888855 12.033269
101.502441 -2.525208 11.992940
101.185791 -2.163940 11.953038
100.997314 -1.807251 11.929055
98.356689 -1.416565 11.604087
97.720459 -1.066223 11.525437
97.542603 -0.723755 11.503205
95.289917 -0.374451 11.226375
94.658691 -0.041504 11.148770
94.132080 0.287292 11.084176
93.653442 0.612732 11.025596
93.383179 0.937012 10.992738
93.229370 1.260925 10.974328
93.118774 1.584534 10.961366
93.049805 1.908264 10.953633
92.980957 2.231567 10.946069
92.827881 2.552185 10.928300
89.289673 2.766846 10.494811
87.603394 3.020691 10.288884
87.029663 3.305115 10.219752
86.841187 3.601563 10.198077
86.766235 3.901917 10.190478
86.686768 4.201599 10.182450
86.606079 4.500732 10.174392
86.525513 4.799438 10.166476
86.445068 5.097717 10.158719
86.364868 5.395569 10.151109
86.284912 5.692993 10.143640
86.202759 5.989868 10.136041
86.083008 6.283569 10.123940
81.034424 6.199463 9.505002
49.823486 3.986755 5.663255
80.287476 6.706482 9.418550
79.959229 6.960205 9.381034
79.625366 7.211243 9.342935
79.204834 7.452026 9.294225
77.631592 7.577454 9.103417
74.855225 7.570313 8.764104
73.579102 7.700867 8.609879
72.976685 7.895386 8.538850
72.401489 8.088989 8.471257
72.159424 8.317078 8.444875
71.951172 8.547668 8.422776
71.744141 8.777161 8.400901
71.538208 9.005493 8.379258
71.333252 9.232788 8.357842
71.122681 9.458008 8.335790
70.911621 9.682007 8.313790
70.701904 9.904846 8.292024
70.493164 10.126648 8.270474
70.285645 10.347351 8.249162
70.079102 10.567017 8.228057
69.972778 10.800903 8.219487
69.944702 11.046692 8.220729
69.916504 11.292542 8.222081
69.888550 11.538452 8.223550
69.860474 11.784485 8.225131
69.832520 12.030640 8.226825
69.804565 12.276855 8.228627
69.774902 12.522888 8.230321
69.708008 12.762207 8.227483
69.603271 12.994263 8.220017
69.419800 13.210999 8.202806
69.237183 13.426819 8.185782
69.055298 13.641846 8.168942
68.874268 13.856018 8.152286
68.497925 14.029297 8.111241
68.137573 14.203491 8.072232
67.783813 14.376831 8.034101
67.429688 14.547852 7.995980
61.344849 13.459351 7.237521
61.056396 13.619568 7.207185
60.779541 13.780701 7.178357
60.504761 13.940674 7.149852
60.232178 14.099487 7.121663
59.961792 14.257141 7.093793
59.700928 14.415466 7.067178
59.608887 14.613647 7.061942
59.520874 14.812500 7.057302
58.812866 14.854492 6.974233
56.839966 14.567444 6.730781
56.515137 14.694580 6.696069
56.193481 14.820618 6.661786
55.875122 14.945435 6.627934
55.559814 15.069092 6.594508
55.275635 15.199341 6.565064
55.053711 15.345215 6.543574
54.961548 15.526489 6.538692
54.869507 15.707581 6.533910
54.777710 15.888367 6.529225
54.686157 16.068970 6.524648
54.594849 16.249329 6.520169
54.503540 16.429504 6.515790
54.412598 16.609497 6.511512
54.300171 16.782593 6.504560
54.162354 16.947388 6.494412
53.937500 17.083923 6.473104
53.155762 17.040710 6.380036
52.384888 16.995483 6.288247
52.099121 17.104004 6.259034
51.833984 17.217651 6.232499
51.571045 17.330383 6.206265
51.310303 17.442322 6.180333
51.051636 17.553467 6.154691
50.795044 17.663696 6.129340
50.540527 17.773193 6.104276
50.287964 17.881897 6.079495
50.037476 17.989807 6.054990
49.788818 18.096924 6.030759
49.542236 18.203308 6.006799
49.297485 18.308960 5.983102
49.074341 18.421265 5.962264
48.928101 18.561462 5.951531
48.782227 18.701233 5.940921
48.636963 18.840515 5.930425
48.535889 18.996460 5.925805
48.514893 19.183838 5.931838
48.494019 19.371521 5.937957
48.473022 19.559631 5.944173
48.420166 19.735168 5.946261
48.354370 19.905457 5.946713
48.288574 20.075745 5.947244
48.222900 20.246155 5.947854
48.157104 20.416565 5.948548
48.091309 20.586975 5.949319
48.025513 20.757446 5.950171
47.959717 20.928040 5.951100
47.893921 21.098633 5.952113
47.828125 21.269287 5.953206
47.762207 21.440002 5.954377
47.669922 21.598816 5.952058
47.328003 21.643311 5.916112
47.001831 21.692871 5.882266
46.681885 21.743225 5.849219
46.227661 21.728333 5.797933
45.696289 21.673645 5.736062
45.318359 21.688477 5.694961
45.013062 21.735779 5.663686
44.710815 21.782654 5.632806
44.411621 21.829041 5.602317
44.115479 21.875000 5.572209
43.822266 21.920532 5.542476
43.642090 22.021179 5.528247
43.494263 22.137390 5.518516
43.407349 22.284302 5.517219
43.320435 22.431091 5.515998
43.233643 22.577820 5.514852
43.146851 22.724548 5.513783
43.060059 22.871277 5.512792
42.968384 23.015137 5.511161
42.903809 23.173645 5.513400
42.884888 23.357239 5.522115
42.843750 23.529053 5.527799
42.759399 23.677368 5.527520
42.675049 23.825745 5.527324
42.590698 23.974060 5.527202
42.506470 24.122375 5.527156
42.425903 24.272827 5.527698
42.362183 24.433044 5.530725
42.298584 24.593506 5.533826
42.234863 24.754089 5.537013
42.171021 24.914917 5.540280
42.107178 25.075928 5.543626
42.043457 25.237122 5.547055
41.979492 25.398499 5.550565
41.886475 25.542419 5.549975
41.682739 25.618225 5.533509
41.480347 25.693665 5.517209
41.278931 25.768738 5.501081
41.049072 25.824829 5.480819
40.810181 25.873840 5.459239
40.440063 25.837524 5.418506
40.065430 25.795532 5.377006
39.696167 25.754211 5.336167
39.332031 25.713562 5.295979
38.973022 25.673462 5.256421
38.618896 25.633972 5.217481
38.269653 25.595032 5.179149
37.972290 25.588440 5.148381
37.700195 25.596863 5.121289
37.430786 25.605286 5.094533
37.163940 25.613647 5.068105
36.925293 25.639709 5.045821
36.811279 25.751465 5.042180
36.697388 25.863037 5.038613
36.583740 25.974548 5.035125
36.470581 26.086121 5.031762
36.357544 26.197693 5.028481
36.244751 26.309082 5.025275
36.132202 26.420410 5.022145
36.019653 26.531616 5.019088
35.907349 26.642700 5.016107
35.843018 26.789490 5.020539
35.788330 26.943848 5.026547
35.733643 27.098572 5.032636
35.678711 27.253662 5.038808
35.623779 27.409119 5.045064
35.568726 27.564941 5.051404
35.513550 27.721130 5.057834
35.458252 27.877747 5.064343
35.402832 28.034668 5.070943
35.347412 28.192078 5.077630
35.303589 28.359253 5.086259
35.273071 28.537964 5.097119
35.242554 28.717407 5.108094
35.211914 28.897522 5.119187
35.181274 29.078430 5.130395
35.150391 29.260071 5.141725
35.119507 29.442505 5.153174
35.088501 29.625732 5.164742
35.057373 29.809692 5.176435
35.026245 29.994446 5.188245
34.994995 30.180054 5.200185
34.963623 30.366455 5.212249
34.932129 30.553650 5.224435
34.900513 30.741699 5.236753
34.868774 30.930603 5.249196
34.836914 31.120361 5.261773
34.815430 31.320374 5.276198
34.817139 31.542419 5.294623
34.818848 31.765930 5.313237
34.820557 31.990967 5.332051
34.822510 32.217590 5.351089
34.824707 32.446045 5.370370
34.827026 32.675964 5.389855
34.829224 32.907471 5.409547
34.831665 33.140625 5.429452
34.833984 33.375305 5.449569
34.819214 33.594971 5.466949
34.747925 33.761292 5.474870
34.676636 33.928040 5.482886
34.605103 34.095276 5.491008
34.533325 34.263062 5.499227
34.466553 34.436340 5.508433
34.407593 34.618286 5.519132
34.348389 34.800903 5.529954
34.289063 34.984192 5.540887
34.153320 35.089783 5.538507
33.886353 35.059570 5.513032
33.625000 35.033081 5.488429
33.385132 35.027100 5.467546
33.271118 35.152344 5.469050
33.157104 35.277649 5.470630
33.042969 35.403076 5.472293
32.928833 35.528625 5.474034
32.814575 35.654236 5.475854
32.700439 35.779968 5.477750
32.586182 35.905823 5.479732
32.475830 36.036255 5.482520
32.370605 36.172546 5.486337
32.265137 36.309082 5.490237
32.159668 36.445801 5.494222
32.054077 36.582764 5.498286
32.027832 36.811157 5.517289
32.024658 37.067993 5.540860
32.021362 37.326904 5.564691
32.017944 37.587585 5.588752
32.013184 37.848816 5.612828
31.971680 38.068481 5.630164
31.823975 38.162231 5.627347
31.666870 38.244507 5.622788
31.489868 38.302185 5.614425
31.308472 38.353638 5.605195
31.112183 38.385986 5.593074
30.915527 38.416626 5.580823
30.670776 38.386047 5.559094
30.424194 38.351135 5.536878
30.134155 38.259094 5.505933
29.847168 38.168091 5.475383
29.563110 38.078003 5.445226
29.282593 37.989685 5.415570
29.006226 37.904175 5.386579
28.732788 37.819519 5.357953
28.461914 37.735779 5.329682
28.239502 37.713989 5.311137
28.087036 37.784546 5.306888
27.934814 37.855103 5.302724
27.782837 37.925537 5.298640
27.631104 37.995972 5.294642
27.492310 38.083923 5.293387
27.357422 38.177124 5.293012
27.222656 38.270447 5.292714
27.111694 38.397461 5.297563
27.050903 38.596680 5.313281
26.993286 38.802002 5.329898
26.959351 39.043213 5.351861
26.908081 39.261230 5.370347
26.728027 39.291992 5.361001
26.548584 39.322693 5.351760
26.369751 39.353333 5.342629
26.191528 39.383911 5.333604
26.000610 39.394409 5.321734
25.805664 39.397522 5.308904
25.611694 39.400696 5.296206
25.418457 39.403809 5.283641
25.226196 39.407043 5.271207
25.034790 39.410278 5.258903
24.846313 39.416992 5.247235
24.698608 39.487488 5.244912
24.551025 39.557922 5.242669
24.403442 39.628357 5.240502
24.256104 39.698792 5.238416
24.108887 39.769226 5.236405
23.961914 39.839661 5.234471
23.814941 39.910095 5.232617
23.668091 39.980469 5.230838
23.521362 40.050903 5.229136
23.374756 40.121338 5.227513
23.229248 40.193420 5.226197
23.084961 40.267700 5.225274
22.940918 40.342041 5.224425
15.810669 28.030579 3.477625
15.720825 28.100098 3.479665
22.508911 40.565186 5.222337
22.365112 40.639648 5.221791
22.221191 40.714111 5.221322
22.077515 40.788574 5.220929
21.933716 40.863159 5.220611
21.790039 40.937744 5.220368
21.646362 41.012329 5.220202
21.494995 41.072266 5.218074
21.328491 41.102661 5.211928
21.162231 41.132996 5.205873
20.996460 41.163269 5.199901
20.829102 41.189758 5.193498
20.643799 41.179688 5.182162
20.459351 41.169678 5.170941
20.275513 41.159729 5.159837
20.092407 41.149780 5.148847
19.910156 41.139954 5.137971
19.746460 41.167542 5.132300
19.608154 41.248047 5.133903
19.469849 41.328552 5.135579
19.331543 41.409180 5.137328
19.193115 41.489929 5.139153
19.054565 41.570740 5.141051
18.916016 41.651611 5.143027
18.777344 41.732605 5.145078
18.638672 41.813721 5.147201
18.499878 41.894897 5.149404
18.360840 41.976196 5.151679
18.221924 42.057617 5.154031
18.082764 42.139160 5.156457
17.943481 42.220764 5.158961
17.805176 42.304993 5.161870
17.674316 42.407471 5.167270
17.543213 42.510193 5.172753
17.411865 42.613159 5.178319
17.280273 42.716309 5.183970
17.148438 42.819763 5.189706
17.016357 42.923401 5.195527
16.884033 43.027344 5.201434
16.803223 43.265015 5.225007
16.724121 43.510803 5.249660
16.644287 43.758728 5.274598
16.563843 44.008911 5.299832
16.476318 44.243896 5.323083
16.385864 44.475403 5.345885
16.294922 44.708801 5.368945
16.203125 44.944031 5.392261
16.110596 45.181274 5.415845
16.016846 45.418762 5.439481
15.920898 45.654175 5.462861
15.810059 45.850342 5.481153
15.678589 45.989563 5.492093
15.546753 46.129333 5.503152
15.403931 46.238220 5.510255
15.252930 46.323486 5.514358
15.100098 46.403992 5.517919
14.939331 46.460510 5.518445
14.778564 46.517090 5.519053
14.617798 46.573730 5.519736
14.433350 46.554138 5.510699
14.248901 46.533020 5.501550
14.065063 46.511963 5.492507
13.881714 46.490967 5.483567
13.699097 46.470154 5.474732
13.516846 46.449402 5.466001
13.342285 46.453308 5.460509
13.169312 46.461609 5.455661
12.996582 46.469971 5.450898
12.824219 46.478333 5.446221
12.652100 46.486694 5.441628
12.480225 46.495117 5.437121
12.308594 46.503601 5.432698
12.140503 46.524292 5.429912
11.998047 46.644592 5.439820
11.856567 46.770569 5.450515
11.718506 46.912781 5.463309
11.579834 47.055603 5.476235
11.440552 47.199158 5.489299
11.300781 47.343323 5.502492
11.173218 47.543457 5.522798
11.087036 47.927185 5.566276
10.979614 48.229126 5.599465
10.871094 48.534485 5.633096
10.770508 48.884888 5.672420
10.690796 49.342163 5.725183
10.609741 49.807373 5.778941
10.527222 50.280823 5.833726
10.382324 50.466248 5.852403
10.211304 50.528137 5.855649
10.040161 50.590088 5.858981
9.868774 50.652161 5.862401
9.697144 50.713196 5.865762
9.520996 50.751526 5.866363
9.342896 50.779663 5.865766
9.159912 50.781128 5.861915
8.977295 50.782593 5.858151
8.794922 50.784119 5.854474
8.612671 50.785706 5.850888
8.430664 50.787292 5.847386
8.248901 50.789001 5.843974
8.067261 50.790710 5.840648
7.885864 50.792480 5.837407
7.704712 50.794312 5.834256
7.523682 50.796204 5.831189
7.342896 50.798157 5.828210
7.162231 50.800110 5.825315
6.981689 50.802185 5.822505
6.801392 50.804260 5.819783
6.621216 50.806396 5.817143
6.441284 50.808472 5.814582
6.260498 50.803955 5.811276
6.080078 50.799438 5.808059
5.899780 50.794983 5.804925
5.723877 50.828125 5.806514
5.554688 50.923523 5.815864
5.384399 51.014465 5.824735
5.213745 51.105713 5.833716
5.042603 51.197266 5.842809
4.870972 51.289185 5.852014
4.698853 51.381470 5.861329
4.526123 51.474060 5.870759
4.361206 51.664795 5.892358
4.203735 51.961792 5.927106
4.044312 52.260620 5.962140
3.882568 52.555725 5.996772
3.719238 52.854065 6.031861
3.554077 53.155762 6.067433
3.386963 53.460938 6.103490
3.218140 53.769531 6.140038
3.047363 54.081726 6.177089
2.874756 54.397522 6.214650
2.700195 54.716980 6.252734
2.523560 55.040283 6.291348
2.344849 55.367371 6.330506
2.164185 55.698364 6.370210
2.002197 56.623657 6.483012
1.836304 57.628357 6.605618
1.634644 57.614136 6.603124
1.432983 57.599915 6.600724
1.231567 57.585815 6.598420
1.030029 57.563416 6.595185
0.828613 57.533447 6.591104
0.627197 57.481018 6.584353
0.425903 57.402283 6.574460
0.225220 57.323853 6.564691
0.025146 57.245605 6.555034
-0.174561 57.189514 6.548173
-0.373779 57.140869 6.542317
-0.572876 57.092346 6.536565
-0.771729 57.058655 6.532714
-0.973267 57.193970 6.549708
-1.175781 57.330078 6.566878
-1.377808 57.406189 6.576777
-1.579834 57.461182 6.584165
-1.782227 57.516357 6.591666
-1.985107 57.571777 6.599278
-2.198242 57.885132 6.638679
-2.418823 58.322632 6.693425
-2.634644 58.585327 6.726796
-2.853149 58.866821 6.762570
-3.075317 59.176941 6.801974
-3.304077 59.566162 6.851203
-3.534668 59.939819 6.898622
-3.751465 60.049133 6.913636
-3.969238 60.159058 6.928819
-4.212280 60.620483 6.987365
-4.468994 61.224121 7.063531
-4.733887 61.876831 7.145877
-5.103882 63.785950 7.383117
-5.382813 64.441711 7.466157
-5.656860 64.986755 7.535695
-5.933228 65.513123 7.603074
-6.199463 65.892151 7.652425
-6.465088 66.234985 7.697436
-6.733643 66.581787 7.743072
-7.005249 66.932495 7.789323
-7.277954 67.269653 7.834027
-7.559937 67.666687 7.886270
-7.845581 68.068970 7.939301
-8.133057 68.461426 7.991267
-8.417725 68.806396 8.037503
-8.705566 69.155518 8.084399
-8.996582 69.508789 8.131955
-9.257568 69.615173 8.149070
-9.632568 70.549805 8.268949
-9.885010 70.560120 8.274449
-10.131958 70.530518 8.275111
-10.379150 70.500977 8.275889
-10.620605 70.434692 8.272214
-10.762695 69.724670 8.188661
-11.013062 69.732239 8.194316
-11.290649 69.904785 8.220614
-11.566772 70.059753 8.244857
-11.843506 70.210571 8.268720
-12.119141 70.346375 8.290851
-12.394897 70.476013 8.312337
-12.016968 66.956116 7.878695
-12.281860 67.084106 7.899949
-12.558350 67.267822 7.928304
-12.833618 67.436890 7.954972
-13.098511 67.544373 7.974065
-13.323608 67.444580 7.967347
-13.548462 67.345093 7.960763
-13.772827 67.245972 7.954318
-13.997070 67.147156 7.948010
-14.220947 67.048706 7.941836
-14.444580 66.950928 7.935843
-14.683105 66.922607 7.938668
-14.925537 66.910828 7.943685
-15.168213 66.899109 7.948823
-15.411255 66.887512 7.954083
-15.654663 66.875977 7.959466
-15.898438 66.864563 7.964972
-16.142456 66.853027 7.970578
-16.386719 66.841553 7.976300
-16.631470 66.830139 7.982146
-16.876587 66.818848 7.988116
-17.122070 66.807617 7.994214
-17.367310 66.794373 8.000167
-17.605469 66.752380 8.002584
-13.143921 49.139404 5.771821
-13.282837 48.973572 5.756600
-13.421143 48.808533 5.741529
-13.558838 48.644287 5.726604
-13.695801 48.480896 5.711829
-13.831909 48.317932 5.697154
-13.967773 48.156189 5.682694
-14.102905 47.995300 5.668378
-14.237427 47.835144 5.654202
-14.371216 47.675659 5.640166
-14.504517 47.516907 5.626264
-14.637207 47.358887 5.612504
-14.769287 47.201660 5.598876
-14.900879 47.045044 5.585387
-15.031738 46.889160 5.572026
-15.162109 46.733948 5.558803
-15.094116 45.976868 5.467835
-15.221680 45.824890 5.455029
-15.348633 45.673645 5.442353
-15.474976 45.523010 5.429805
-15.600952 45.372986 5.417378
-15.726318 45.223633 5.405076
-15.851196 45.074890 5.392898
-15.975464 44.926758 5.380839
-16.099365 44.779236 5.368901
-16.222656 44.632263 5.357083
-16.345459 44.485962 5.345384
-16.467773 44.340149 5.333800
-16.589722 44.195007 5.322335
-16.711060 44.050354 5.310985
-16.831909 43.906311 5.299748
-16.952393 43.762939 5.288629
-17.072388 43.619995 5.277619
-17.202637 43.504761 5.270318
-17.743774 44.419189 5.399199
-17.865479 44.274353 5.388249
-17.986450 44.129944 5.377416
-18.107178 43.986145 5.366693
-18.227539 43.842834 5.356074
-18.347168 43.700073 5.345572
-18.466675 43.557861 5.335176
-18.585571 43.416077 5.324885
-18.247681 42.218750 5.173446
-18.362915 42.081421 5.163613
-18.477783 41.944519 5.153884
-18.592163 41.808167 5.144259
-18.706177 41.672180 5.134732
-10.463867 23.094177 2.639251
-10.542603 23.053589 2.638722
-19.046021 41.267151 5.106755
-19.158569 41.132996 5.097625
-19.270752 40.999268 5.088595
-19.382568 40.866028 5.079659
-19.494141 40.733215 5.070821
-19.605225 40.600830 5.062078
-19.716064 40.468811 5.053430
-19.826416 40.337219 5.044875
-19.936523 40.205994 5.036414
-20.046265 40.075256 5.028047
-20.155640 39.944824 5.019769
-20.264648 39.814819 5.011586
-20.373413 39.685181 5.003495
-20.481812 39.555969 4.995490
-20.589966 39.427124 4.987578
-20.697754 39.298584 4.979754
-20.805298 39.170471 4.972018
-20.912476 39.042725 4.964372
-21.019409 38.915283 4.956811
-21.125977 38.788269 4.949340
-21.232300 38.661499 4.941953
-21.338257 38.535217 4.934653
-21.444092 38.409180 4.927436
-21.549438 38.283508 4.920308
-21.654663 38.158142 4.913262
-21.759521 38.033081 4.906301
-21.864136 37.908386 4.899421
-22.518799 38.730347 5.027038
-22.625488 38.603149 5.020154
-22.731934 38.476196 5.013352
-22.838135 38.349670 5.006639
-22.944092 38.223389 5.000007
-23.049805 38.097412 4.993455
-23.155151 37.971802 4.986989
-23.260376 37.846375 4.980599
-23.365356 37.721313 4.974296
-23.469971 37.596558 4.968072
-23.574585 37.472290 4.961967
-23.678833 37.348083 4.955907
-23.782837 37.224182 4.949927
-23.886597 37.100464 4.944024
-23.990112 36.977051 4.938201
-24.093384 36.853943 4.932456
-24.196655 36.731079 4.926791
-24.299561 36.608521 4.921203
-24.402222 36.486145 4.915690
-24.504639 36.364014 4.910254
-24.606934 36.242188 4.904895
-24.708984 36.120483 4.899613
-24.810913 35.999146 4.894408
-24.912476 35.877991 4.889276
-25.014038 35.757080 4.884219
-25.115234 35.636353 4.879235
-25.216431 35.515930 4.874328
-25.317261 35.395630 4.869496
-25.418091 35.275635 4.864738
-25.518555 35.155762 4.860049
-25.619019 35.036133 4.855435
-25.719116 34.916687 4.850896
-25.819214 34.797485 4.846427
-25.919067 34.678528 4.842032
-26.018799 34.559692 4.837708
-26.118286 34.441040 4.833457
-26.217773 34.322632 4.829274
-26.317017 34.204407 4.825168
-26.416016 34.086304 4.821126
-26.515137 33.968445 4.817157
-26.613892 33.850708 4.813260
-26.712524 33.733093 4.809432
-26.811035 33.615723 4.805675
-26.909424 33.498535 4.801988
-27.007568 33.381470 4.798368
-27.104858 33.263489 4.794646
-27.202759 33.146729 4.791156
-27.300537 33.030212 4.787740
-27.398193 32.913635 4.784389
-27.495728 32.797363 4.781104
-27.593140 32.681213 4.777890
-27.690552 32.565125 4.774745
-27.787720 32.449280 4.771665
-27.884766 32.333435 4.768655
-27.981812 32.217773 4.765712
-28.078613 32.102295 4.762832
-28.175415 31.987000 4.760022
-28.272095 31.871704 4.757277
-28.368652 31.756470 4.754601
-28.465088 31.641479 4.751988
-28.561523 31.526550 4.749446
-28.657593 31.411804 4.746968
-28.753784 31.297058 4.744555
-28.849976 31.182495 4.742208
-28.945923 31.068054 4.739924
-29.041870 30.953674 4.737712
-29.137695 30.839294 4.735562
-29.233521 30.725159 4.733476
-29.329102 30.611084 4.731456
-29.424805 30.497009 4.729501
-29.520386 30.383118 4.727611
-29.615845 30.269165 4.725785
-29.711182 30.155457 4.724023
-29.806519 30.041748 4.722329
-29.901855 29.928101 4.720695
-29.997070 29.814575 4.719129
-30.092285 29.700989 4.717624
-30.187378 29.587585 4.716186
-30.282471 29.474182 4.714808
-30.377441 29.360901 4.713496
-30.472412 29.247742 4.712251
-30.567383 29.134521 4.711066
-30.662354 29.021484 4.709970
-30.757202 28.908386 4.708915
-30.852173 28.795288 4.707925
-30.946899 28.682373 4.706998
-31.041626 28.569397 4.706136
-31.136475 28.456421 4.705337
-31.231079 28.343567 4.704604
-31.325684 28.230713 4.703931
-31.420410 28.117920 4.703321
-31.515015 28.005066 4.702775
-31.609619 27.892273 4.702291
-31.704346 27.779541 4.701871
-31.798828 27.666809 4.701516
-31.893433 27.554016 4.701221
-31.988037 27.441345 4.700992
-32.082520 27.328613 4.700824
-32.177124 27.215881 4.700719
-32.271606 27.103210 4.700679
-32.366211 26.990540 4.700702
-32.460693 26.877808 4.700784
-32.555298 26.765076 4.700933
-32.649902 26.652405 4.701144
-32.744385 26.539673 4.701419
-32.838989 26.426941 4.701753
-32.933594 26.314148 4.702155
-33.028198 26.201416 4.702619
-33.122803 26.088623 4.703145
-33.217529 25.975830 4.703734
-33.312134 25.862915 4.704389
-33.406860 25.750061 4.705106
-33.501587 25.637146 4.705884
-33.596313 25.524231 4.706725
-33.691040 25.411194 4.707633
-33.786011 25.298218 4.708604
-33.880737 25.185181 4.709640
-33.975708 25.072083 4.710732
-34.070557 24.958862 4.711896
-34.165649 24.845642 4.713119
-34.262207 24.733521 4.714643
-34.357300 24.620178 4.715997
-34.452393 24.506775 4.717416
-34.547607 24.393372 4.718896
-34.642944 24.279846 4.720443
-34.738159 24.166260 4.722053
-34.833618 24.052612 4.723731
-34.929077 23.938904 4.725471
-35.024536 23.825134 4.727275
-35.119995 23.711182 4.729142
-35.215698 23.597229 4.731076
-35.311401 23.483215 4.733077
-35.407227 23.369080 4.735143
-35.503174 23.254822 4.737267
-35.598999 23.140503 4.739463
-35.694946 23.026001 4.741723
-35.791138 22.911499 4.744048
-35.887329 22.796875 4.746440
-35.983643 22.682129 4.748895
-36.079956 22.567261 4.751420
-36.176514 22.452271 4.754006
-36.273071 22.337280 4.756663
-36.369751 22.222046 4.759385
-36.466553 22.106750 4.762172
-36.563354 21.991333 4.765029
-36.660400 21.875732 4.767953
-36.757446 21.760071 4.770938
-36.854614 21.644226 4.773997
-36.951904 21.528259 4.777120
-37.049316 21.412109 4.780313
-37.146851 21.295898 4.783572
-37.244507 21.179504 4.786904
-37.342285 21.062927 4.790298
-37.440308 20.946228 4.793763
-37.538452 20.829346 4.797297
-37.636597 20.712341 4.800902
-37.734863 20.595215 4.804574
-37.833252 20.477905 4.808318
-37.931152 20.359924 4.812028
-38.029785 20.242249 4.815911
-38.128784 20.124390 4.819860
-38.227783 20.006348 4.823882
-38.326904 19.888123 4.827975
-38.426392 19.769775 4.832137
-38.525757 19.651184 4.836373
-38.625488 19.532410 4.840680
-38.725342 19.413452 4.845057
-38.825317 19.294250 4.849507
-38.925415 19.174927 4.854032
-39.025757 19.055359 4.858626
-39.126221 18.935547 4.863294
-39.226929 18.815613 4.868037
-39.327759 18.695374 4.872853
-39.428833 18.574951 4.877740
-39.530151 18.454285 4.882705
-39.631470 18.333435 4.887744
-39.733154 18.212341 4.892858
-39.834961 18.091003 4.898044
-39.936890 17.969421 4.903310
-40.039063 17.847656 4.908650
-40.141479 17.725525 4.914065
-40.244141 17.603271 4.919559
-40.347046 17.480713 4.925128
-40.449951 17.357910 4.930778
-40.553345 17.234863 4.936502
-40.656738 17.111511 4.942306
-40.760498 16.987976 4.948188
-40.864380 16.864075 4.954150
-40.840698 16.687683 4.943227
-40.804688 16.506958 4.930760
-40.768311 16.326904 4.918365
-40.802856 16.175720 4.915452
-40.906860 16.051880 4.921744
-41.011108 15.927856 4.928115
-41.115356 15.803406 4.934567
-41.219971 15.678711 4.941102
-41.324951 15.553711 4.947719
-41.430176 15.428406 4.954415
-41.535522 15.302795 4.961198
-41.641235 15.176880 4.968064
-41.747314 15.050598 4.975011
-41.853394 14.924011 4.982043
-41.960815 14.797485 4.989278
-42.067505 14.670227 4.996478
-42.174683 14.542603 5.003764
-42.281982 14.414673 5.011134
-42.389648 14.286438 5.018594
-42.497559 14.157837 5.026139
-42.605713 14.028809 5.033772
-42.714355 13.899475 5.041495
-42.823120 13.769775 5.049308
-50.034668 15.896118 5.972226
-50.408447 15.821411 6.013234
-51.008301 15.814270 6.083283
-55.938843 17.128967 6.709365
-56.081543 16.958801 6.720054
-56.224854 16.788147 6.730868
