ply
format ascii 1.0
element vertex 1035
property float x
property float y
property float z
end_header
13.103291866410098 7.87151722290201 -0.101462
15.555917800165936 106.5608293582821 2.909264
15.493413248967201 107.44486956893117 2.936475
15.749235025193265 110.58564462270762 3.035317
15.550620454462575 110.57325273897418 3.03406
15.352223125394055 110.56090017521305 3.032813
15.215735062871055 111.00017209116683 3.045901
8.901711452579477 175.39183551067134 5.043967
8.582737617745678 175.14509266301934 5.03572
8.276667989050893 175.15497117645194 5.035567
7.9819025566527415 175.4067424749177 5.043044
4.893079270172834 174.5809063609771 5.013539
4.587477115567239 174.55520558057222 5.012471
4.2819622860936875 174.5295885576823 5.011422
3.9766206748686272 174.50396862990178 5.01039
3.671363513369414 174.47826065529387 5.009374
3.366238422111195 174.45267935527477 5.008376
3.061197780578823 174.42701000842834 5.007396
2.7562892092874733 174.40146733617067 5.006429
2.4514650877219566 174.37583661708564 5.005481
2.1467290129837977 174.35029034772649 5.004552
1.8421214113851363 174.3246982564029 5.003638
1.5375585548954547 174.29914908215312 5.002742
1.2332526152003567 174.27350685006832 5.001863
0.9289055569822295 174.2479956113691 5.001
0.624687693598915 174.22243924291632 5.000154
0.3205982738707007 174.19683563859294 4.999326
0.016467735619400514 174.17136302765516 4.998511
-0.2874044424466575 174.1457987433041 4.99772
-0.591234011005227 174.12027671330043 4.99694
-0.8950621656576345 174.0947546538123 4.996181
-1.1987192376630134 174.0692290267071 4.995437
-1.5024153220744267 174.04383364180774 4.994708
-1.8058551524176494 174.01834733467484 4.993999
-2.109295012245326 173.99285961363577 4.993306
-2.412734842588563 173.9673733065029 4.992627
-2.7160455075813985 173.9418404557103 4.991967
-3.0192681257469047 173.91639205464352 4.991324
-3.3223629629837603 173.89089855330764 4.990699
-3.625413806291391 173.86544586292854 4.990088
-3.928463927903721 173.8399938647603 4.989497
-4.231470026102372 173.81458409145495 4.988919
-4.534347651161497 173.78912849618519 4.98836
-4.837181945017832 173.7637158474737 4.987817
-5.139887073523795 173.73825665510248 4.987292
-5.4426766517555905 173.71288550955856 4.986783
-7.560202222168755 173.53399531700904 4.983657
-7.862518334154672 173.50857115529777 4.983279
-8.164834446140574 173.48314699358644 4.982921
-8.467062511299162 173.45780728160105 4.982579
-8.769206126731888 173.43237952278824 4.982253
-9.071433470195146 173.40704050301366 4.981944
-9.373533062214207 173.3816549690638 4.98165
-9.675675985436058 173.3562264885557 4.981376
-9.977774855759819 173.33084164681674 4.981116
-10.27974597463934 173.30541029090244 4.980874
-10.581845566658401 173.28002475695257 4.980645
-10.883771940428971 173.2546363181121 4.980439
-11.185743059308507 173.22920496219783 4.980243
-11.487754604500239 173.2039038779738 4.980069
-11.789680286059934 173.17851471743802 4.979909
-12.091607381525804 173.15312558638666 4.979766
-12.393534476991661 173.1277364553353 4.979638
-12.695416827348566 173.10239024135777 4.979529
-12.997343922814451 173.0770011103064 4.979436
-15.474541438951064 173.5750990681617 5.00141
-15.739812633502979 173.13393144373532 4.988349
-16.03791560448488 173.06214336953943 4.98696
-16.354510876744456 173.18827736424302 4.991832
-65.71999668990065 187.72407543277464 5.775504
-65.30060071529923 185.48735512294488 5.704816
-65.01987760490766 183.66582268234518 5.647899
-65.3572785630083 183.59947250723036 5.64948
-65.69476535525652 183.5332118223335 5.651084
-66.03242754894856 183.46678151628961 5.652703
-84.51131425739489 176.43154495846332 5.672809
-82.76229881650775 172.00927079725142 5.523742
-83.01443666549642 171.76523490325758 5.52027
-83.33960566919849 171.6727297731707 5.522109
-83.77316593560072 171.80186442467158 5.531718
-84.05204631551547 171.6126903665991 5.530231
-83.07537586864045 168.87193525010494 5.439376
-83.28993823510064 168.56465266148007 5.433705
-83.59892902707989 168.4489309940447 5.434751
-83.91289239074435 168.34315525777924 5.436172
-81.49797436751214 162.78627485918136 5.246034
-81.49680076248535 162.07665874618698 5.226083
-81.5798881869375 161.53892347908345 5.212169
-81.76847646625346 161.2124077674406 5.205688
-81.95641161805179 160.88617902172905 5.199225
-82.14385387470618 160.56076112703775 5.192798
-82.33097786837129 160.2361570177418 5.1864
-82.51765443369672 159.91232015018144 5.180037
-82.70397089581448 159.5891667668417 5.173707
-82.8898399295926 159.26678062523757 5.167407
-83.07534958185839 158.94507727564323 5.161138
-83.2603670311911 158.62418549876446 5.154902
-83.44502512849589 158.30397509998926 5.1487
-83.62927979139023 157.9844911319929 5.142526
-83.81815774355103 157.67511767582133 5.136722
-32.28451779159941 60.47732549106522 1.679391
-32.4445877498038 60.52270868128411 1.683017
-84.42323470403409 156.82666841662984 5.12218
-84.62285702594207 156.54234102954575 5.117293
-84.8142334645285 156.24359604840973 5.111901
-85.00511842187714 155.94566194777838 5.106542
-81.13697562649233 148.23298254840378 4.835553
-80.18983915908352 145.89758445168957 4.75689
-80.30437462700925 145.50373583823634 4.747781
-80.49163207037392 145.24310834660793 4.743468
-80.72284675662884 145.06261068023505 4.74204
-80.99250618362453 144.95129336218724 4.743108
-81.3052472298065 144.91654635648888 4.746953
-81.00022303443357 143.78424034004362 4.711238
-78.91752268307229 139.51710411647065 4.562285
-78.56370108721546 138.3277492197996 4.524285
-78.21529132271351 137.156206371253 4.486873
-77.4608636740836 135.28413103492713 4.424026
-77.60802576398004 134.99413441700491 4.418424
-77.82252846167964 134.82222378181442 4.417113
-78.09140521796253 134.74430112903752 4.419223
-78.44047122402621 134.80377043240287 4.426345
-78.25844223962869 133.95250459537883 4.400359
-78.30165299332774 133.49090681233307 4.388515
-78.46212911168436 133.2311028319764 4.384034
-78.6749986242814 133.0609277054781 4.382831
-77.68552938140421 130.8655890027871 4.307624
-77.71596082349495 130.39780991083313 4.295476
-77.74617366943957 129.93227181257055 4.283404
-77.81692437726323 129.53694929009626 4.273892
-77.91350552288608 129.18636848891316 4.266017
-78.02891414410114 128.86864285054847 4.259349
-78.18786534305235 128.62400256280958 4.255366
-78.34655312321685 128.37961493203736 4.251401
-78.43308281087843 128.0183782882854 4.243134
-78.45636360487651 127.55610533761683 4.231135
-75.79717301082471 122.75211348301015 4.058766
-75.74993394934188 122.19797712530723 4.043176
-75.69824232145194 121.63999165687721 4.027423
-75.72551833183618 121.21177527771883 4.016458
-75.87370046168073 120.97847837353933 4.012715
-76.02165455855865 120.74573827899171 4.008994
-76.16934520716542 120.51325225531693 4.005292
-76.31685187570368 120.28127940250492 4.001611
-76.46404965865092 120.04960281594421 3.997949
-76.61102514133452 119.81830987973578 3.994308
-76.75773147252845 119.58744275977362 3.990687
-76.90425880517705 119.35691775751164 3.987086
-77.05056170196052 119.12677706832834 3.983502
-77.19659616894963 118.89706150318047 3.979938
-77.34245235908874 118.6676873635219 3.976398
-77.48649257255583 118.43633321761925 3.972783
-77.6300600119879 118.20492677724448 3.969172
-70.43444040631621 106.8415760098545 3.546548
-70.54837919133507 106.60881758143907 3.542418
-70.71825270207032 106.46144473675432 3.541519
-70.93576236470872 106.38542989804549 3.54331
-70.04703233976626 104.65654735175389 3.482623
-70.05722472945055 104.27753105413791 3.472906
-67.82462037817966 100.57466506264181 3.337193
-67.7584733480502 100.09921745475526 3.323647
-66.1490735195471 97.35523958515805 3.223891
-65.89427910042593 96.61706721571937 3.200208
-65.92014915710969 96.29354628877927 3.192272
-66.04310309794334 96.11286331500068 3.189773
-66.16588094512232 95.93234924067379 3.187291
-66.28843867523295 95.7520462906615 3.184819
-66.41094518772694 95.57213055861853 3.182364
-66.53314641173142 95.3923385962737 3.179925
-66.65630403453261 95.21433543641703 3.177558
-12.743177032515803 18.135374112317226 0.221517
-12.703780958662833 18.012473757008664 0.217647
-12.719136981941267 17.967467774672173 0.216766
-12.743463384268903 17.935340643088512 0.21639
-12.777056153815227 17.91631283448616 0.216512
-12.811530220346267 17.89846967630681 0.216686
-12.867357650540539 17.910382800913887 0.218015
-63.29475819704373 87.77791816398091 2.925855
-63.246322200175754 87.38883003464076 2.915051
-63.19071101754854 86.99190860169867 2.903927
-63.13547601344204 86.59767057978 2.892889
-63.08066405719168 86.20590335358565 2.881929
-63.026182842142205 85.81686173379322 2.871056
-63.07308899636833 85.56720796966033 2.865611
-63.132734748330655 85.33595048978594 2.860876
-63.21466139703437 85.13541777831428 2.857347
-63.29627628474091 84.93535313743628 2.853835
-63.377840647041644 84.73567643622285 2.85034
-63.459220999789444 84.53651431977836 2.846864
-63.54046499298386 84.33765065278054 2.843406
-63.62152639053148 84.13930160003608 2.839963
-63.70236335221398 83.94133686037028 2.83654
-63.631549601063426 83.54478869180309 2.825273
-63.55035669214183 83.13671428200281 2.813527
-63.51009202535848 82.78427280436031 2.803967
-63.55893971525032 82.54916402593588 2.799041
-63.6075997984877 82.31474232883356 2.794143
-63.65607371846123 82.08100632863163 2.789268
-63.704489197130684 81.84800395341152 2.784417
-63.412276010186844 81.17988978902859 2.762214
-63.225693266723646 80.65047468259154 2.745496
-63.23972759545127 80.37906968213987 2.73906
-63.25361186843042 80.10865383904292 2.732658
-63.26755897904203 79.83936243599858 2.726293
-63.28303852643001 79.57316684165738 2.720042
-63.305014171685 79.31630251274497 2.714161
-63.32701225774469 79.06043093828873 2.708311
-63.348905003680485 78.8055070180196 2.702493
-63.370650569273984 78.55140045076283 2.696704
-63.41438743841546 78.32542262498626 2.692044
-63.5013714022137 78.15352979984527 2.689569
-63.588220420364735 77.98193545363539 2.687108
-63.671230295009366 77.8060740668659 2.684482
-63.621997503221706 77.46967791124906 2.675326
-63.17684311415427 76.65445258112064 2.646652
-62.9746232619944 76.13800718156571 2.630091
-62.851302193345 75.71942774292452 2.617491
-62.72903214984335 75.30423819604249 2.605
-62.561693527717075 74.83738551684392 2.590367
-62.33360852563841 74.30058684353077 2.572827
-62.30909033970648 74.00865028321569 2.56531
-62.34141821001073 73.78532653176592 2.560599
-62.37373097021373 73.56269345873979 2.555917
-62.40585753766843 73.3407474965202 2.551255
-62.437969024506316 73.11949079881803 2.546618
-62.44747509313791 72.87272709878869 2.540917
-62.45527639442488 72.62489100503471 2.535169
-62.463015686790705 72.3779596189096 2.529449
-62.58054198019232 72.2588068728679 2.529031
-62.71986308937736 72.16475806127812 2.529667
-61.05997567593659 70.00775789739822 2.444287
-60.700657791097086 69.35106489798795 2.421318
-60.48896911202653 68.8663661714388 2.405478
-60.28443915412996 68.39239310063432 2.39005
-60.27967519832406 68.14679868352742 2.384168
-60.266413803942186 67.89260925323566 2.377909
-60.23895654908757 67.62361929560741 2.37102
-60.21160255817759 67.35588404972205 2.364173
-58.684011460242914 65.41687761719126 2.286752
-58.35284737118538 64.81978128722707 2.265839
-58.174440379109804 64.39517586349754 2.252172
-58.037126492083495 64.01826356706542 2.240497
-57.90112558749165 63.64466033925255 2.228929
-57.766183653430275 63.27409990397541 2.217468
-57.63246955986665 62.906759768794885 2.206111
-57.49981440734905 62.54246384005626 2.194858
-57.51963824168203 62.34534149164964 2.190722
-57.57258948405339 62.18460963646116 2.188141
-57.625364632770065 62.02404668072438 2.185573
-57.67812968239315 61.86400193634247 2.183018
-57.75233802276341 61.727196529901455 2.181468
-57.83891396464548 61.6039023819453 2.180503
-57.92544519090303 61.48064973715678 2.179543
-58.01188837033322 61.3574815420941 2.178595
-58.098243502936086 61.234397796757264 2.177652
-58.18463975406199 61.111445044806004 2.176723
-58.270903242736026 60.98861824574821 2.1758
-58.35712270799639 60.865833671553325 2.174885
-58.44329884205395 60.74309204391668 2.17398
-58.529469965103836 60.62052288334877 2.173083
-58.61547000550673 60.497950155163835 2.172195
-55.4986057086075 57.08132316566147 2.026927
-55.26129568044932 56.63912766176579 2.011768
-55.0043246574124 56.17925510555988 1.995786
-54.90738182967527 55.88472898169251 1.987048
-54.83078586015552 55.612297616495106 1.979258
-54.78071372508171 55.36787379600055 1.972688
-54.730958498513225 55.124837863829775 1.966159
-54.681435730724196 54.88310177315544 1.959674
-52.519296222272125 52.52922954932602 1.859317
-52.20384032552749 52.03174813713654 1.841257
-52.04395840025283 51.69170575119552 1.830159
-51.885564888340866 51.35480139882055 1.819171
-51.73420076626759 51.02654914645053 1.808535
-51.64460317562069 50.76066606194858 1.800666
-51.55570068921024 50.4966547386762 1.792859
-51.467280413655295 50.23437989393543 1.78511
-51.37959857353959 49.973933863866 1.777424
-51.311524463991134 49.733753056099886 1.770632
-51.245966523437055 49.497078271521325 1.76398
-51.158341184946615 49.2401294083862 1.756392
-51.05854608764621 48.972696951091265 1.748309
-50.95952915988635 48.70722285846263 1.740293
-50.90823077563327 48.488500775048486 1.73438
-50.93230695929892 48.34210271052202 1.731759
-50.95628718023895 48.19613478103862 1.729149
-50.980175757250144 48.05042379783427 1.726554
-51.00414158978421 47.90514585456363 1.72397
-51.0279270098668 47.76020999950873 1.721402
-51.05175067306625 47.61557694218172 1.718845
-51.07543725501702 47.47124302651221 1.7163
-51.09907403325732 47.32729635829645 1.713769
-51.12270220338847 47.18369465370263 1.71125
-51.14632387152751 47.04043866391047 1.708743
-51.16985317404239 46.89744031260822 1.70625
-51.193331980635946 46.75482848706439 1.703769
-51.21387897861401 46.60995452928698 1.70118
-51.23441950408441 46.46542487240509 1.698602
-51.25486835614153 46.32115357570839 1.696037
-51.275349026401685 46.177357514323894 1.693487
-51.2957387744283 46.03381770700755 1.690948
-51.31607799704914 45.89066583935582 1.68842
-51.33636887745952 45.74772938533106 1.685906
-51.356563824628715 45.60522165244322 1.683407
-51.37679629321945 45.463017409494114 1.680918
-37.66430778894214 33.21191592474885 1.103055
-37.64351010142413 33.07692874406156 1.099761
-37.72160552447406 33.029086531072906 1.100617
-51.45726587175899 44.89768753502288 1.671086
-51.477249446469465 44.7570743888139 1.668659
-51.521860475023885 44.63817069349992 1.667267
-51.56892621936198 44.5216500247115 1.665993
-51.61598767438772 44.40530113078096 1.664727
-51.663090247936495 44.28908323023598 1.663469
-51.71014378706394 44.17308002162268 1.662221
-51.75698222013071 44.05711547025525 1.660978
-51.80394483702463 43.94136851571011 1.659745
-51.85077535419311 43.82574964965992 1.658521
-51.91614231917166 43.72584083366006 1.658066
-51.98494488623015 43.628895649106305 1.657763
-52.053787850116386 43.53208215014899 1.657468
-52.12267054810395 43.43539820118663 1.65718
-52.191512819779305 43.33858398053401 1.656897
-52.26026704462734 43.24185420960723 1.656621
-52.3290659850999 43.14508293551284 1.656352
-52.355549284263304 43.013627144273265 1.65437
-52.37464239862282 42.876406546569946 1.6521
-52.393727597084045 42.73953163418387 1.649841
-52.41272115161644 42.60291366807683 1.647594
-52.44703348575201 42.479003522297035 1.64598
-52.48966201730071 42.362001330236374 1.644708
-52.53215920030372 42.24512512055361 1.643443
-52.5746527567208 42.12842282133021 1.642188
-52.61705757409967 42.01180425013735 1.640941
-52.65945948658791 41.89535889719298 1.6397
-52.70172863662429 41.77903949714207 1.638469
-52.74403890518371 41.662851090476735 1.637245
-52.78630155322796 41.546877405227505 1.636029
-52.82843503592184 41.43085717631856 1.634821
-52.87060531834196 41.31514112955923 1.633622
-52.908058893872905 41.1958293212503 1.632241
-52.93208332489407 41.06639523534511 1.630342
-52.95610343711845 40.937134338204 1.628452
13.007347854829401 5.017712479779803 -0.036907
13.005677077909045 5.043172628826547 -0.036668
13.004007022683995 5.06863347008416 -0.036427
13.002251796037791 5.09418166595824 -0.036185
13.000581048601873 5.1196432289111575 -0.035942
12.998869845369338 5.145233649648164 -0.035697
12.997159363832107 5.170824762596036 -0.03545
12.995491491802376 5.196458129891272 -0.035201
12.993781010265147 5.2220492428391445 -0.034951
12.992113830446282 5.2476818884390735 -0.034699
12.990362230386006 5.273403994772516 -0.034446
12.988654624254963 5.299166912062708 -0.034191
12.986947739819225 5.324930521563765 -0.033935
12.985239441477315 5.350694160549262 -0.033676
12.983492130729399 5.376588041740582 -0.033416
12.981828577496461 5.402394597799871 -0.033154
12.980080545053239 5.428287786780324 -0.032891
12.978332542094456 5.454182389666949 -0.032626
12.976628533064902 5.480117803510326 -0.03236
12.974924553519788 5.506054631259876 -0.032091
12.973180839873363 5.532121009004383 -0.031822
12.971435712320766 5.558187416233327 -0.03155
12.96969199867434 5.584253793977831 -0.031277
12.967947592817048 5.610320893417644 -0.031002
12.966247180888987 5.636428803814205 -0.030725
12.964462348719515 5.66262617494428 -0.030447
12.96280668190043 5.688777002414634 -0.030167
12.961065873144628 5.7150165984076295 -0.029884
12.959239892967673 5.741343549017099 -0.029601
12.957543799836408 5.767624648177714 -0.029316
12.95576256476843 5.793994515860973 -0.029029
12.954065779426296 5.820276336716892 -0.02874
12.952244088561699 5.846775062184241 -0.02845
12.950506876907388 5.873187154730424 -0.028158
12.948769665253078 5.899599247276607 -0.027864
12.946992719497457 5.926140889817745 -0.027568
12.94521508153097 5.95268325405419 -0.02727
12.943481466978149 5.979267843153558 -0.026972
12.941747130730024 6.005851740042058 -0.02667
12.939929758662224 6.03252365427346 -0.026368
12.938111694383558 6.059196290200166 -0.026063
12.936381676932228 6.085953375852721 -0.025757
12.93460763606723 6.1126682366423495 -0.025449
12.932793168890054 6.139513369122241 -0.025139
12.931063151438728 6.1662704547747955 -0.024827
12.929293399886088 6.193157090422305 -0.024514
12.927438506396735 6.220132494592459 -0.024199
12.925668062633228 6.247019851935274 -0.023881
12.923857192557543 6.274037480968353 -0.023562
12.922046322481858 6.30105511000143 -0.023242
12.920279475819841 6.328114963897432 -0.02292
12.918512629157826 6.355174817793432 -0.022594
12.916661332769962 6.382322718516772 -0.022268
12.914854059795768 6.409512844103034 -0.02194
12.913046786821575 6.436702969689298 -0.02161
12.911283537261053 6.463935320138485 -0.021278
12.909436559669986 6.491256409625876 -0.020945
12.90763288379728 6.518619031765324 -0.020609
12.905829207924578 6.545981653904772 -0.020271
12.90394039011516 6.573433044566864 -0.019933
12.902180737656128 6.600837891569238 -0.019591
12.900336635471247 6.628330785398946 -0.019248
12.89853727839534 6.655866596302449 -0.018903
12.896652749898282 6.683489761822421 -0.018556
12.894768221401222 6.711112927342393 -0.018207
12.892927024106966 6.738779039420596 -0.017856
12.89113126413255 6.76648734687728 -0.017504
12.889334782462829 6.7941949621231 -0.017149
12.88745385106726 6.821990624196257 -0.016792
12.885616972569801 6.849829925038513 -0.016434
12.883695614862054 6.877755858801931 -0.016073
12.881902730293824 6.905635970600937 -0.01571
12.880025425484185 6.933605543133453 -0.015346
12.878192114603777 6.961615926622722 -0.014979
12.876274383481961 6.9897157708455 -0.014611
12.874400646289374 7.017856426025027 -0.01424
12.872526216885921 7.045997802899862 -0.013867
12.870697224802308 7.074181375153181 -0.013494
12.868782369086677 7.102453023718277 -0.013117
12.866953377003068 7.1306365959715965 -0.012738
12.864998094975256 7.159038516226955 -0.012358
12.863172699993136 7.18739458503346 -0.011975
12.861261441378996 7.215838730151743 -0.01159
12.859395620084697 7.244325070648509 -0.011204
12.85752910657953 7.272812132840581 -0.010815
12.855578113864079 7.301385827953819 -0.010425
12.853671174046735 7.330003161836154 -0.010032
12.851807535947756 7.358662028370546 -0.009636
12.849860169818232 7.387409633943141 -0.009239
12.847957519313248 7.416198742683356 -0.00884
12.846053454902089 7.444987880908009 -0.008439
13.119098634610088 7.633808342392527 0.001963
13.117125230574352 7.663376205868127 0.002377
13.115151826538618 7.692944069343728 0.002793
13.113137996190702 7.72264220450959 0.003211
13.111208615568636 7.752252292848113 0.003633
13.109238808634391 7.7819926528769 0.004055
13.107228575387966 7.8118632845959475 0.00448
13.10534681528106 7.84168809435058 0.004908
13.103336611519074 7.871560139975801 0.005337
13.101285951960472 7.90156104338511 0.005769
13.099235292401872 7.931561946794421 0.006203
13.09727198745974 7.961648021624882 0.006639
13.095265351314808 7.991691149897116 0.007078
13.093306335685035 8.021948999585458 0.007519
13.091258581017058 8.052123121243259 0.007962
13.089300287082592 8.08238166314247 0.008407
13.087256821726971 8.11272755965815 0.008855
13.085256687574153 8.14311640273206 0.009305
13.083173517601661 8.17359326314887 0.009757
15.501279333962728 106.186711170411 3.647477
15.310024347816402 106.17325981523126 3.645909
15.119155473299493 106.15967027246299 3.644355
14.928117728815337 106.14625823725558 3.642814
14.85548263576171 106.98337078898449 3.674277
14.790750502638353 107.89927215127264 3.708793
14.724964525810094 108.83090940354026 3.743915
14.658027251566843 109.77767916301131 3.779618
14.589922741095997 110.74091989894369 3.815957
14.520738349014046 111.72071678275852 3.852935
8.901667429165812 175.39179328580843 6.271504
8.582737617745678 175.14509266301934 6.261428
8.276796462190418 175.15492535448755 6.261241
7.981861438129712 175.40687346830327 6.270385
4.893035246759169 174.5808641361142 6.234315
4.587477115567239 174.55520558057222 6.233012
4.282006309507366 174.5296307825452 6.23173
3.9765766514549483 174.50392640503884 6.230464
3.671279063643567 174.47834870212122 6.229222
3.366238422111195 174.45267935527477 6.228005
3.0612418039924876 174.42705223329125 6.226804
2.7562892092874733 174.40146733617067 6.225625
2.4514650877219566 174.37583661708564 6.224465
2.1466849895701188 174.35024812286355 6.223329
1.8421214113851363 174.3246982564029 6.222213
1.5376436968321627 174.29906031363046 6.221116
1.2332526152003567 174.27350685006832 6.22004
0.9289055569822295 174.2479956113691 6.218986
0.624687693598915 174.22243924291632 6.217954
0.32064229728436544 174.19687786345588 6.216941
0.016467735619400514 174.17136302765516 6.215947
-0.2874044424466575 174.1457987433041 6.214974
-0.5913624841447529 174.12032253526485 6.214025
-0.8950621656576345 174.0947546538123 6.213094
-1.1986752142493486 174.06927125157 6.212186
-1.5023308723485798 174.0437455949804 6.211297
-1.8058551524176494 174.01834733467484 6.210429
-2.1093390356589907 173.99281738877283 6.20958
-2.412734842588563 173.9673733065029 6.208753
-2.716001484167734 173.94188268057323 6.207948
-3.0192681257469047 173.91639205464352 6.20716
-3.3223629629837603 173.89089855330764 6.206393
-3.625542279430917 173.86549168489296 6.205647
-3.928463927903721 173.8399938647603 6.204925
-4.231426002688693 173.81462631631788 6.204221
-4.534347651161497 173.78912849618519 6.203538
-4.8371379216041674 173.7637580723366 6.202872
-5.139887073523795 173.73825665510248 6.202231
-5.4426766517555905 173.71288550955856 6.20161
-7.560246245582434 173.53395309214613 6.197787
-7.862474310740993 173.50861338016068 6.197328
-8.16479042272691 173.48318921844938 6.196887
-8.467062511299162 173.45780728160105 6.196467
-8.769250150145552 173.4323372979253 6.196071
-9.07147749360881 173.40699827815075 6.195691
-9.37349194369115 173.38152397567822 6.195334
-9.675675985436058 173.3562264885557 6.194997
-9.977774855759819 173.33084164681674 6.19468
-10.279701951225675 173.30545251576535 6.194385
-10.581845566658401 173.28002475695257 6.194106
-10.883815963842636 173.25459409324918 6.193849
-11.185699035894842 173.22924718706074 6.193618
-11.487798627913904 173.2038616531109 6.193398
-11.789680286059934 173.17851471743802 6.193202
-12.091607381525804 173.15312558638666 6.19303
-12.393534476991661 173.1277364553353 6.192874
-12.695416827348566 173.10239024135777 6.19274
-12.997343922814451 173.0770011103064 6.192626
-15.474592656567708 173.5747118501924 6.21947
-15.739900680330308 173.1338469940095 6.203519
-16.03791560448488 173.06214336953943 6.201823
-16.354510876744456 173.18827736424302 6.207782
-87.09163545558565 179.4015498992485 7.186051
-86.74909932384813 177.90486042654572 7.128592
-86.59753210620445 176.81007358485428 7.088248
-83.05636618667361 168.83333545415314 6.753221
-83.27001402403988 168.52439295030862 6.746213
-83.57991215091008 168.4106761911993 6.747581
-84.03123073649363 168.5804561097906 6.761138
-83.32198559013014 166.42959578289145 6.675044
-83.573176936811 166.20608819088244 6.671697
-83.92111492874078 166.17479457004902 6.676639
-85.07880570453344 167.73890321009603 6.750331
-82.97831742711433 162.8922564912155 6.54779
-82.95477526779099 162.14574081215753 6.521834
-82.99343834859866 161.52544856284317 6.501307
-83.18425057182594 161.2040729176862 6.493686
-83.37461827160416 160.88329129601632 6.486106
-83.5646641112916 160.563495956295 6.478562
-83.75426899514707 160.24412355741376 6.471057
-83.94351090038867 159.92560644709545 6.463586
-84.13230465559532 159.6078572707236 6.456161
-84.30549804023715 159.261939345316 6.447516
-84.47068447284458 158.90255936645735 6.438296
-32.28667959008912 60.48134183919378 2.158755
-84.79982409728186 158.187010823099 6.420001
-84.98572165510019 157.8715323824423 6.412704
-85.20235022140422 157.61419435312277 6.407952
-85.41871177182004 157.35728147732308 6.403232
-85.63476512885575 157.10066558947005 6.39854
-85.85055005609708 156.84447482565244 6.393876
-86.09260150291573 156.63700826635673 6.39136
-80.4368150924406 145.74374747343205 5.91998
-80.59609098380477 145.43181458283195 5.912454
-80.82070542056782 145.23870461941831 5.910171
-81.09596097072748 145.1363956774469 5.911881
-81.13747324074987 144.61756419647585 5.895268
-81.16448392237088 144.0757675627983 5.877633
-81.33681257711942 143.79410885459887 5.871463
-81.56574296796457 143.61343412473195 5.869756
-81.84239680848029 143.5165500319824 5.871785
-82.17861379923136 143.52356122505492 5.87843
-79.6473319849626 138.54140713723254 5.664023
-79.28926506302801 137.36305780036068 5.61793
-79.05719992578118 136.41060046241867 5.581796
-79.16848247835256 136.05471482742735 5.57212
-79.35000072514791 135.82090437905012 5.56787
-79.5312981331796 135.5873057471984 5.563643
-79.71237324094764 135.35409076569894 5.559445
-79.89459682757352 135.12366229318266 5.555379
-79.2246962431617 133.4583964598291 5.487224
-79.36010639706461 133.15649983075554 5.47992
-79.56327415287569 132.96924361974055 5.477742
-78.44709933805908 130.58590033259344 5.377166
-78.45388482516157 130.0824468878115 5.360726
-78.48231719864533 129.6174318113612 5.346004
-78.59683934588308 129.2966669775623 5.337749
-78.69363133819202 128.9484224111009 5.328259
-78.84900673489193 128.69723117203725 5.323138
-79.00753571469835 128.45214923625548 5.318305
-79.16575290402315 128.20753678497354 5.313495
-79.32387416010677 127.9633530548285 5.308707
-79.48159989767821 127.71955007014508 5.30395
-79.62189213121675 127.4484899606292 5.297965
-76.61802945871065 122.16522764571121 5.064698
-76.55753137015327 121.59691500436148 5.04498
-76.53579175249709 121.09308243492083 5.028163
-76.68363608343824 120.859433343432 5.023622
-76.83134042824011 120.62625661184916 5.019103
-76.97869258573265 120.39341767916973 5.014609
-77.12586505246898 120.16092014249517 5.010139
-77.27276978162183 119.92884845155132 5.005691
-77.41903073117092 119.69654762130098 5.001241
-77.5636914547257 119.46240071256716 4.996715
-77.7080830267908 119.22867962007962 4.992211
-77.85225157689695 118.99534287015521 4.987735
-77.99611127089655 118.76230097257594 4.983279
-78.13983167096771 118.52973215659799 4.97885
-78.28332766465816 118.29754623979254 4.974444
-78.42660063638965 118.06574466555018 4.970063
-78.56952142081178 117.83428089021123 4.965705
-78.71234624250829 117.60324724991537 4.961371
-78.85494807173026 117.37259653827644 4.957065
-78.99615326801884 117.14057927277858 4.952699
-73.66359965509434 108.82288566060997 4.573245
-68.39903499406219 100.66663318245796 4.200404
-68.33687954230558 100.19852106092837 4.184199
-68.27257546248173 99.72993270476275 4.167945
-66.64574095287401 96.98982139174471 4.045783
-66.45021965135562 96.34465988613735 4.021113
-66.53404746408972 96.10678315125725 4.015422
-66.656788482058 95.9259663086869 4.012399
-66.77935340637161 95.74531836556827 4.009398
-66.90341753535239 95.56729096635613 4.006522
-67.0279335184857 95.39035297653666 4.003701
-12.704872303106733 18.013964080565735 0.371781
-12.72005942693347 17.968782004574575 0.370704
-12.744300687324397 17.93656610446827 0.370234
-12.777809699355736 17.91745097073388 0.370383
-12.812872009077084 17.90039735859439 0.37063
-12.868783196786335 17.912397808333495 0.372259
-63.89172772971688 88.6058495594709 3.721492
-64.13778044149176 88.62052007044433 3.727485
-65.11119477985171 89.63574908768489 3.781022
-65.24748850479565 89.49436809665389 3.779714
-63.80782106608185 87.19972305835707 3.675895
-63.75173655370922 86.80477703523376 3.662387
-63.69607221378653 86.41247361217708 3.648982
-63.640872099211926 86.02276915041799 3.635676
-63.58592184372938 85.63553116558643 3.62247
-63.59686070748662 85.3386787424437 3.61357
-63.68047054092601 85.1402534040158 3.609385
-63.76389708650776 84.94234195814593 3.605222
-63.84710279332586 84.74464232880158 3.601075
-63.928277446895706 84.54499993655278 3.596829
-64.0091879304991 84.34561230738773 3.592601
-64.08995845744762 84.14669562422249 3.588397
-64.17063371388139 83.94820979779566 3.584212
-64.25108528562977 83.75010617833044 3.580054
-64.32656591363121 83.54611633696449 3.575603
-64.24260002593667 83.136472686034 3.561172
-64.15913444162112 82.72973287076155 3.546857
-64.07638643183118 82.32585615726869 3.532655
-64.06111957837606 82.01049991729302 3.522738
-64.10898004596443 81.7771832608297 3.516811
-63.37812388226265 80.55501455135129 3.462548
-63.391897667609726 80.28369040352398 3.454689
-63.40556110182523 80.0134863769525 3.446874
-63.41915962222898 79.74436027625838 3.439099
-63.43273586781292 79.47626843318805 3.431369
-63.44624717010067 79.20925592990125 3.423681
-63.459945493848046 78.94358546348936 3.416049
-63.48148964957596 78.68882684557039 3.40895
-63.51404104738259 78.44854340481172 3.402555
-63.601076950492775 78.27626266949058 3.399521
-63.687977186260454 78.10428110531139 3.396504
-63.77474103299035 77.93259940448503 3.393504
-63.86141395748672 77.76117395772683 3.390519
-63.892207294152755 77.52240770714275 3.384189
-63.84239140668292 77.18707796440347 3.373038
-63.40976452119767 76.39214419742328 3.33892
-63.108180127491444 75.75940486636597 3.312819
-62.98459142827457 75.34328111334786 3.297504
-62.86201407907302 74.9304148742816 3.282322
-62.740359974090566 74.52089342670538 3.267274
-62.56330506101673 74.04796716246811 3.249002
-62.51356506533058 73.72761807263305 3.238372
-62.54566271947289 73.5050236568528 3.23265
-62.57757495015606 73.28294379635702 3.226954
-62.609386159512106 73.06163840128427 3.221292
-62.6411382353532 72.84106590949804 3.215654
-62.67279147306251 72.62109535709723 3.210048
-62.695620264596926 72.39166011454266 3.203951
-62.702874577717104 72.14519389412057 3.196983
-62.79986699144173 72.002604352534 3.195299
-62.939144798908416 71.90859707359627 3.196095
-61.10776502396008 69.570861185706 3.082191
-60.89278504774568 69.08255327904068 3.062653
-60.6802823351357 68.59965099324944 3.04334
-60.491763765689534 68.14651600020878 3.025511
-60.476220844288044 67.88994786218827 3.017745
-60.448168844251015 67.62051407332184 3.00931
-60.42034858129812 67.3523808181627 3.000922
-58.974693279112856 65.51052639860598 2.911169
-58.689878902973625 64.96572391715567 2.888299
-58.54918913257715 64.58308596779388 2.873775
-58.40972648098312 64.20366901073957 2.859384
-58.27144695426229 63.827513856949466 2.845125
-58.134396681945354 63.454579032740384 2.830997
-57.99844508477578 63.08481796496818 2.817002
-57.86368090179176 62.718146925602305 2.803135
-57.73010056537625 62.35473699728978 2.789396
-57.77119298122347 62.18102432966637 2.785576
-57.82392770362798 62.02033110223933 2.782439
-57.89928580026177 61.88428380827971 2.780598
-57.98608617800899 61.7606053472449 2.779409
-58.07275307160903 61.63705353131442 2.778233
-58.15937594179539 61.513543940246855 2.777066
-58.2459555102634 61.39007588183135 2.77591
-58.33244631020876 61.26669296535257 2.774766
-58.418890181849825 61.14352549198519 2.773633
-58.50533336128003 61.02035729692252 2.77251
-58.59164447046922 60.89731577644861 2.771398
-58.67791155624474 60.77431648083761 2.770296
-58.764135310817466 60.65136013178486 2.769204
-58.85031003096885 60.52861847466378 2.768125
-58.936441449401876 60.40591835019475 2.767056
-55.86556908448225 57.05884409914159 2.592645
-55.625390114825485 56.61550948915878 2.574021
-55.477065586713834 56.267765576173296 2.560506
-55.437566581557185 56.031806774801886 2.552988
-55.354499937397364 55.7528949341819 2.543135
-55.26933660448222 55.47311894874573 2.533205
-54.635531989373234 54.64584384735529 2.493507
-54.69367693587692 54.513452015144686 2.491501
-54.82164185515984 54.45059209708941 2.493275
-55.06507668657453 54.501771263467 2.501307
-52.55304376375568 51.83415586550982 2.360631
-52.39129619459901 51.49454914676459 2.347051
-52.23112287295261 51.158169951803366 2.333607
-52.072477669285774 50.825059754309336 2.320303
-51.93110310326868 50.510397892029395 2.307976
-51.841106533508615 50.24709647552842 2.298451
-51.75172061825914 49.98557877342967 2.288999
-51.67246701359529 49.734977457280316 2.280124
-51.6056755592627 49.49745723508831 2.271951
-51.50618793364711 49.22972848205762 2.262076
-51.404812945040085 48.961441949555656 2.252145
-51.304217539879794 48.69511381120443 2.242294
-51.20960710841858 48.435732006189646 2.232804
-51.23338450558684 48.28911199655963 2.2296
-51.25707095103716 48.14274965490397 2.226411
-51.28070548665993 47.996773809522296 2.223239
-51.30433352029061 47.8511436789423 2.220082
-51.32791033630463 47.70590076633159 2.216942
-51.35135076328085 47.560957717073705 2.213817
-51.37482943337393 47.41631746554371 2.210706
-51.39821144853052 47.272106627361495 2.207613
-51.42091067167734 47.12753640766695 2.204499
-51.441313979398586 46.9812774664564 2.201286
-51.4617512114399 46.83549451173778 2.198089
-51.482051362232546 46.69001069867669 2.194908
-51.5023045847209 46.54474232872701 2.191743
-51.52254701590477 46.39999144843688 2.188594
-51.54274182657348 46.25545528956287 2.18546
-51.56288541962555 46.11130634865815 2.182342
-51.58297779506097 45.96754462572272 2.179238
-51.60306366850427 45.82412861758896 2.176152
-51.62305648411256 45.68096952624981 2.173081
-37.67774637027242 33.22372238640463 1.454746
-37.64622107127595 33.07940269282062 1.450171
-37.72584447580499 33.032801051312994 1.451293
-51.70274136118169 45.11182388480425 2.160948
-51.722571117057285 44.97034538042315 2.157953
-51.74239226482374 44.82921183966398 2.154973
-51.76207774524769 44.68837747004676 2.152006
-51.79829532086612 44.56213278107996 2.149894
-51.8454079935085 44.44539666918012 2.148346
-51.89247373784659 44.328876000391695 2.146808
-51.93945074314648 44.21243905963382 2.145281
-51.98642415134487 44.09617461542912 2.143761
-52.0333102049268 43.97999534264558 2.142253
-52.088802634310106 43.871290932306636 2.141189
-52.15786934185061 43.774092398575334 2.140816
-52.22693532769581 43.67689455705491 2.140452
-52.29595729012735 43.579738940397405 2.140096
-52.36493595084052 43.48262485639195 2.13975
-52.4340423629979 43.38555728656179 2.13941
-52.50297769250827 43.28848614911457 2.13908
-52.57199605783832 43.19150302901025 2.138757
-52.64092997344251 43.094431862078594 2.138442
-52.70476895694197 42.99328247459772 2.13788
-52.72352717728871 42.85553647133656 2.1351
-52.7423626236739 42.71822492191529 2.132335
-52.761066029302505 42.58103863317661 2.129582
-52.779718187830014 42.4442409763134 2.126845
-52.79840717556822 42.307746087693644 2.124123
-52.82944633456786 42.18139270501793 2.12202
-52.87190306177425 42.06438763755108 2.120491
-52.91422702652877 41.94750852297769 2.118974
-52.95659141759546 41.83075968009457 2.117467
-52.99882443063201 41.71413823349552 2.115969
-53.04109717776988 41.59764633689144 2.11448
-53.0832385468776 41.48128183657141 2.113002
-53.125419650086634 41.36504688624636 2.111531
-53.16755382499138 41.24902737903272 2.110074
-53.20696482483364 41.131051383235125 2.108494
13.007347854829401 5.017712479779803 0.060541
13.005677077909045 5.043172628826547 0.060834
13.004007022683995 5.06863347008416 0.061128
13.002336245763638 5.094093619130902 0.061423
13.000581048601873 5.1196432289111575 0.061721
12.998869845369338 5.145233649648164 0.062021
12.997159363832107 5.170824762596036 0.062323
12.995447468388704 5.196415905028348 0.062627
12.993781010265147 5.2220492428391445 0.062932
12.992113830446282 5.2476818884390735 0.06324
12.990362230386006 5.273403994772516 0.06355
12.988654624254963 5.299166912062708 0.063862
12.986947739819225 5.324930521563765 0.064176
12.985239441477315 5.350694160549262 0.064491
12.983576580455246 5.376499994913243 0.064809
12.981783832387485 5.402351680726079 0.065128
12.980080545053239 5.428287786780324 0.065451
12.978332542094456 5.454182389666949 0.065774
12.976628533064902 5.480117803510326 0.0661
12.974924553519788 5.506054631259876 0.066428
12.973180839873363 5.532121009004383 0.066758
12.971391688907097 5.558145191370402 0.06709
12.96969199867434 5.584253793977831 0.067424
12.967947592817048 5.610320893417644 0.06776
12.966247180888987 5.636428803814205 0.068098
12.964462348719515 5.66262617494428 0.068439
12.96280668190043 5.688777002414634 0.068781
12.961065873144628 5.7150165984076295 0.069126
12.959239892967673 5.741343549017099 0.069472
12.957543799836408 5.767624648177714 0.069821
12.95571854135476 5.79395229099805 0.070171
12.954065779426296 5.820276336716892 0.070524
12.952328538287546 5.846687015356903 0.07088
12.950506876907388 5.873187154730424 0.071237
12.948769665253078 5.899599247276607 0.071596
12.946992719497457 5.926140889817745 0.071958
12.94521508153097 5.95268325405419 0.072321
12.943437443564479 5.979225618290634 0.072687
12.941703107316355 6.005809515179136 0.073055
12.939929758662224 6.03252365427346 0.073425
12.938111694383558 6.059196290200166 0.073797
12.93633765351856 6.085911150989796 0.074172
12.93460763606723 6.1126682366423495 0.074548
12.932793168890054 6.139513369122241 0.074927
12.931063151438728 6.1662704547747955 0.075308
12.929249376472418 6.193114865559381 0.075691
12.927478932708912 6.220002222902197 0.076077
12.925668062633228 6.247019851935274 0.076464
12.923857192557543 6.274037480968353 0.076854
12.922046322481858 6.30105511000143 0.077246
12.920235452406173 6.328072739034507 0.077641
12.918468605744156 6.3551325929305085 0.078037
12.916661332769962 6.382322718516772 0.078436
12.914854059795768 6.409512844103034 0.078836
12.913046786821575 6.436702969689298 0.07924
12.911283537261053 6.463935320138485 0.079646
12.909436559669986 6.491256409625876 0.080054
12.907588860383612 6.5185768069024 0.080464
12.90578518451091 6.545939429041849 0.080876
12.904024839841009 6.573344997739525 0.081291
12.902180737656128 6.600837891569238 0.081709
12.900336635471247 6.628330785398946 0.082129
12.898493254981672 6.655824371439525 0.08255
12.896652749898282 6.683489761822421 0.082974
12.894852671127069 6.711024880515055 0.083401
12.893011473832814 6.738690992593257 0.08383
12.89113126413255 6.76648734687728 0.084261
12.889334782462829 6.7941949621231 0.084695
12.88745385106726 6.821990624196257 0.085131
12.885616972569801 6.849829925038513 0.085568
12.883780064587901 6.877667811974593 0.08601
12.881902730293824 6.905635970600937 0.086452
12.880025425484185 6.933605543133453 0.086898
12.878192114603777 6.961615926622722 0.087346
12.876274383481961 6.9897157708455 0.087796
12.87448509601522 7.0177683791976895 0.088249
12.872611358822637 7.0459090343772175 0.088705
12.87065320138864 7.074139150290257 0.089163
12.868867511023392 7.102364255195632 0.089623
12.866953377003068 7.1306365959715965 0.090086
12.865039213498303 7.158907522841387 0.09055
12.863128676579468 7.187352360170537 0.091019
12.861217417965326 7.21579650528882 0.091489
12.85930757325736 7.244240620922662 0.091962
12.857485083165862 7.272769907977658 0.092437
12.855534090450412 7.301343603090896 0.092915
12.853627150633066 7.32996093697323 0.093394
12.851763512534088 7.358619803507622 0.093878
12.849816146404564 7.387367409080218 0.094363
12.84791349589958 7.416156517820433 0.094851
15.501194884236881 106.18679921723833 4.397977
15.310024347816402 106.17325981523126 4.396121
15.119027000159996 106.15971609442741 4.394284
14.928117728815337 106.14625823725558 4.392463
14.855585070995005 106.98414522492308 4.429692
14.79085725666846 107.90021977597529 4.470498
14.725020062223543 108.8314698102736 4.511996
14.658093579284767 109.77875705940421 4.554223
14.590028081219927 110.74186755313076 4.597173
14.52088771255162 111.72170666180853 4.640882
-87.74676669844465 178.36774663108815 8.551631
-87.59241139192673 177.2720812266901 8.503905
-87.55309773373445 176.41653920864272 8.468291
-87.76707361927086 176.0753142743693 8.458747
-88.01690637804035 175.80727186217558 8.452929
-88.26638263070365 175.5397404376493 8.447154
-84.48474761524918 167.29095165505467 8.035375
-84.62640306099006 166.8469035418001 8.020272
-84.83559998937184 166.5381702225914 8.012095
-85.08644980354734 166.31245451384007 8.008143
-85.37176251939665 166.1543232891825 8.007663
-85.69101187316613 166.0620837088562 8.010573
-84.46783989784609 162.99281743101395 7.861259
-84.38762383498923 162.14453898940369 7.825393
-84.41733026288057 161.51288029853816 7.800591
-84.60734422494278 161.19040802030105 7.791625
-84.77797766994826 160.83273862319592 7.780852
-84.94396136857117 160.46819458664 7.769738
-85.10966723051695 160.10459460716973 7.758674
-32.28879664346987 60.48540110439614 2.63844
-85.43950860693842 159.38025459697397 7.736714
-85.60381232865495 159.0196899382079 7.725821
-85.76770901885953 158.66002420677387 7.714976
-85.93111066020928 158.30134043849154 7.704196
-86.09423446488194 157.9436007272948 7.693461
-86.27981666460163 157.62876285378496 7.684951
-86.49606340858858 157.371114862019 7.679416
-86.73787509540875 157.1606636144409 7.676345
-86.98071899315791 156.9524355937064 7.673408
-87.2233420521434 156.74441938949738 7.670499
-87.4659189045199 156.53661793618892 7.667617
-87.70819049789134 156.32893883867243 7.664763
-87.95037332274012 156.12134488309266 7.661941
-88.13709060806124 155.81624419555604 7.65404
-88.31528926146962 155.49732422676692 7.645436
-88.49308520216286 155.17912999654584 7.63687
-88.67781268925924 154.87424596547655 7.629008
-84.0665276571755 146.22840978658888 7.184264
-84.23695243418037 145.93453800860598 7.176564
-84.48301491992657 145.7727825894374 7.175805
-84.79813506310946 145.72949480933266 7.181283
-80.3905437421574 137.60190503769874 6.76164
-80.16788190762226 136.67256539434578 6.720111
-80.06070565749471 135.94554329718943 6.689181
-80.24201745393238 135.71125467912498 6.684205
-80.42569318042067 135.4816337676404 6.679486
-80.61114746917542 135.25571921235354 6.674975
-80.79638164086182 135.03001578138128 6.670485
-80.98135167206624 134.80456569958656 6.666026
-81.16609798910079 134.57949923865965 6.661597
-81.35062346737169 134.35464459425822 6.657191
-79.21357014765657 130.31132126516664 6.449882
-79.19937167462348 129.777083811451 6.428826
-79.25687248925435 129.36300922030736 6.414149
-79.37904580411572 129.05621673541606 6.405177
-79.513886745199 128.7712718797531 6.397372
-79.67225761685819 128.52549636065712 6.391667
-79.83048850237809 128.2801932014671 6.385993
-79.9884119456976 128.03518492410672 6.380351
-80.14610735605049 127.79073345637819 6.37474
-80.3034505496096 127.54662120145922 6.369155
-80.46065450820913 127.30297920032922 6.363606
-77.49059745967283 122.13123400216026 6.093038
-77.42271488907676 121.55478027795745 6.069289
-77.35944547916911 120.98895669084045 6.046092
-77.49654515810693 120.73855061754321 6.039874
-77.6419895879826 120.50195878500637 6.034411
-77.78725070051613 120.26588225893374 6.028981
-77.93224839426297 120.03005838982781 6.023576
-78.07701805504318 119.79479133035372 6.018203
-78.22160730337191 119.55986635909537 6.012862
-78.36584508608658 119.32527849452953 6.007545
-78.50994288266197 119.09116298986973 6.002257
-78.65381696506752 118.85743110607771 5.996999
-78.79742330988958 118.62412506801644 5.991776
-78.94076548474517 118.39107379303887 5.986575
-79.0839684246412 118.15849277185029 5.981406
-79.2269469286721 117.92629606374035 5.976264
-79.36970168904872 117.6944843904044 5.971147
-79.51223345695081 117.46305564572539 5.966062
-79.6545400967769 117.23201049242974 5.961007
-79.79587016910351 117.00021154544947 5.955916
-68.97757074294015 100.75972408490405 5.069865
-68.91325144599898 100.28979656726969 5.050612
-68.84938126430458 99.8231586893565 5.031512
-67.26911045602634 97.16862795222166 4.891551
-67.1428609620487 96.62549191551318 4.868022
-67.0277387711028 96.10145197074102 4.845502
-67.1531287500018 95.9240137845586 4.842158
-67.27834263524613 95.74674449782788 4.838834
-12.705794748098937 18.015278310468133 0.526022
-12.721066321651522 17.970184281304306 0.524748
-12.745138682590754 17.937792287543328 0.524181
-12.778691718035763 17.918634928946016 0.524357
-12.814257129010706 17.90228209432374 0.52469
-12.870208021336827 17.914413507963978 0.526621
-68.15077749125086 94.51229571988767 4.81614
-65.03649413599655 89.86233307142739 4.562163
-65.11459296752615 89.64043906908458 4.55609
-65.25029844927975 89.49826853201371 4.554496
-65.43040111437679 89.4171996632357 4.556348
-65.67179938095533 89.41908203165777 4.562892
-68.8854892671045 93.4525666771914 4.796906
-64.34033136899818 86.96822450573102 4.43743
-64.28255440150757 86.57371846860028 4.421477
-64.22515648794389 86.18172403815063 4.405641
-64.16784457451269 85.79184610999896 4.389899
-64.10150179403338 85.39202390810007 4.373563
-64.0915710259051 85.06918155007934 4.361575
-64.17478824572298 84.87096373886455 4.356666
-64.25773700626203 84.67317246559135 4.351783
-64.34063527087974 84.47576771807658 4.346925
-64.42330837793702 84.27874797585135 4.342088
-64.50584294224561 84.08219920911039 4.337279
-64.58819781579803 83.88599183837431 4.332494
-64.67377907268254 83.69447157363173 4.327983
-64.76190973067065 83.50693259687334 4.323701
-64.84998917104211 83.31978083808424 4.31944
-64.75381517440469 82.89732095537373 4.301625
-64.68400443861458 82.51063664736854 4.285846
-64.61461249085269 82.12659349603942 4.270186
-64.54585795720291 81.74515362480463 4.254645
-63.64467713285274 80.31525123932492 4.178338
-63.64605869268799 80.0295956045942 4.168214
-63.65599347102913 79.75603284219348 4.158778
-63.66590666676132 79.48350505911188 4.149394
-63.67575491919733 79.21205661581376 4.140063
-63.68570577285157 78.94186074865709 4.130786
-63.69542209154704 78.67256740593393 4.121556
-63.73196783611667 78.43741780729756 4.114308
-63.84607126767683 78.29820720898265 4.112674
-63.9275884396464 78.11937956350499 4.108726
-64.00905439399929 77.94093913599662 4.104804
-64.0902562078702 77.7627520576658 4.100902
-64.171451519749 77.58491069413664 4.09702
-64.17506766904435 77.3141951494975 4.087663
-64.10694461419902 76.95836703346457 4.073256
-63.7186100977059 76.22125176756373 4.036263
-63.241310562062935 75.38256393177974 3.993148
-63.11749969908286 74.96885225510006 3.975144
-62.99457026958798 74.55835365482952 3.957301
-62.87273802425602 74.1512020587288 3.939612
-62.751828360416724 73.74739311851664 3.922084
-62.71785359820641 73.44727297285701 3.910707
-62.7495507228289 73.22523176960712 3.903981
